52.51 -202.57 1733.11
52.59 -202.58 1733.11
52.97 -202.47 1733.46
52.97 -202.50 1733.40
53.20 -202.59 1733.34
53.20 -202.61 1733.29
50.73 -202.79 1733.16
50.90 -203.05 1733.02
50.91 -202.98 1733.03
51.45 -202.76 1732.94
51.38 -202.73 1732.97
53.19 -202.75 1732.92
53.20 -202.79 1732.84
53.32 -202.80 1732.89
53.35 -202.79 1732.93
53.92 -202.83 1733.20
54.05 -202.89 1733.13
54.04 -202.92 1733.05
54.07 -202.85 1733.25
54.39 -202.95 1733.13
54.26 -202.98 1733.00
54.81 -203.03 1733.13
55.28 -203.04 1733.46
55.17 -203.02 1733.40
50.42 -203.19 1733.29
50.44 -203.01 1733.29
51.05 -203.26 1732.91
51.16 -203.54 1732.83
51.03 -203.43 1732.92
50.86 -203.59 1733.02
50.96 -203.47 1732.96
54.98 -203.07 1733.17
55.17 -203.13 1733.16
55.33 -203.09 1733.35
55.53 -203.18 1733.17
55.68 -203.23 1733.17
56.04 -203.34 1733.34
55.83 -203.35 1733.10
50.52 -203.23 1733.23
50.44 -203.40 1733.27
50.75 -203.40 1733.10
50.32 -203.47 1733.37
50.32 -203.61 1733.41
50.37 -203.74 1733.40
55.96 -203.44 1733.06
55.97 -203.45 1733.05
56.15 -203.50 1733.14
56.46 -203.59 1733.24
50.52 -203.85 1733.33
50.41 -204.00 1733.47
51.03 -203.71 1732.94
51.01 -203.91 1733.02
50.88 -203.94 1733.11
50.93 -203.90 1733.06
50.80 -203.92 1733.15
50.68 -203.86 1733.22
50.64 -204.05 1733.32
56.48 -203.61 1733.22
56.39 -203.62 1733.14
56.64 -203.80 1733.11
56.47 -203.71 1733.09
57.06 -203.86 1733.23
56.72 -203.83 1733.12
56.76 -203.75 1733.24
56.78 -204.02 1732.94
57.46 -204.04 1733.24
50.92 -204.54 1733.44
50.96 -204.52 1733.40
50.95 -204.60 1733.46
51.14 -204.48 1733.18
51.03 -204.39 1733.24
51.04 -204.33 1733.19
57.12 -204.04 1733.08
57.09 -204.11 1733.00
57.55 -204.40 1733.04
57.50 -204.33 1733.05
57.40 -204.09 1733.16
57.60 -204.19 1733.19
57.67 -204.31 1733.16
57.89 -204.22 1733.31
57.69 -204.53 1733.04
57.87 -204.34 1733.22
51.15 -204.67 1733.30
51.23 -204.75 1733.26
51.44 -204.85 1733.10
58.05 -204.53 1733.19
57.89 -204.67 1733.04
57.91 -204.68 1733.05
58.18 -204.39 1733.31
58.25 -204.73 1733.18
51.53 -205.00 1733.18
51.76 -205.10 1733.26
51.77 -205.12 1733.39
51.95 -205.13 1733.48
52.13 -205.12 1733.47
52.25 -205.13 1733.25
52.19 -205.12 1733.40
52.07 -205.13 1733.19
51.91 -205.14 1733.38
52.60 -205.14 1733.02
52.39 -205.10 1733.53
52.54 -205.11 1733.35
52.73 -205.13 1733.11
52.74 -205.11 1733.34
52.67 -205.14 1733.04
53.13 -205.15 1733.13
53.51 -205.25 1733.07
53.65 -205.22 1733.19
53.40 -205.19 1733.19
57.89 -204.72 1733.02
57.77 -204.72 1732.97
58.00 -204.85 1733.02
58.21 -205.27 1732.95
58.47 -205.11 1733.12
58.38 -204.99 1733.12
58.40 -204.88 1733.17
58.63 -204.72 1733.33
58.46 -204.87 1733.20
53.56 -205.30 1732.97
53.66 -205.27 1733.11
53.67 -205.31 1733.02
54.08 -205.42 1733.05
54.35 -205.32 1733.29
53.97 -205.33 1733.13
54.16 -205.34 1733.17
54.51 -205.46 1733.20
54.72 -205.57 1733.19
54.77 -205.71 1733.03
54.94 -205.71 1733.14
54.81 -205.52 1733.29
55.19 -205.89 1733.08
58.54 -205.41 1733.05
58.51 -205.81 1732.90
58.34 -205.59 1732.90
58.65 -205.45 1733.09
58.77 -205.57 1733.13
58.87 -205.87 1733.12
58.83 -205.59 1733.16
58.98 -205.94 1733.18
58.95 -205.77 1733.19
59.18 -205.60 1733.31
59.02 -205.95 1733.20
58.99 -205.62 1733.23
55.28 -206.04 1732.96
55.65 -206.15 1733.07
55.51 -206.12 1733.02
55.94 -206.21 1733.22
58.73 -206.16 1732.92
58.86 -206.34 1732.95
58.66 -206.06 1732.91
55.99 -206.30 1733.18
55.96 -206.40 1733.08
59.11 -206.43 1733.19
58.98 -206.23 1733.09
59.13 -206.50 1733.19
56.41 -206.86 1733.30
56.34 -206.91 1733.22
56.32 -206.79 1733.25
59.03 -206.74 1732.97
59.05 -206.70 1733.01
56.59 -206.98 1733.43
56.47 -207.38 1733.25
56.35 -207.14 1733.18
59.23 -206.90 1733.20
59.11 -206.88 1733.01
59.14 -206.91 1733.06
56.42 -207.50 1733.11
56.33 -207.20 1733.14
57.55 -207.38 1733.37
59.19 -207.26 1733.08
59.29 -207.36 1733.26
56.54 -207.63 1733.14
56.59 -207.84 1732.97
56.69 -207.87 1733.23
56.61 -207.69 1733.28
57.46 -207.74 1733.16
57.62 -207.70 1733.12
57.70 -207.73 1733.17
57.77 -207.85 1733.10
58.51 -207.95 1733.30
58.93 -207.78 1733.32
58.99 -207.76 1733.31
58.87 -207.82 1733.31
59.18 -207.76 1733.21
59.24 -207.78 1733.23
59.35 -207.87 1733.26
57.04 -208.19 1732.93
56.89 -208.12 1733.08
56.72 -207.90 1733.24
57.22 -208.15 1733.10
57.15 -208.17 1733.00
57.22 -208.08 1733.19
57.97 -208.07 1733.01
57.73 -207.95 1732.99
58.11 -208.13 1733.01
58.33 -208.11 1733.16
58.14 -208.03 1733.15
58.93 -208.04 1733.32
58.52 -208.28 1733.12
59.68 -208.05 1733.16
59.64 -208.04 1733.22
58.75 -208.37 1733.19
58.76 -208.50 1733.11
58.71 -208.63 1733.00
59.15 -208.64 1733.30
59.18 -208.84 1733.20
59.08 -208.79 1733.16
59.30 -208.74 1733.33
60.43 -208.77 1733.25
67.91 -208.85 1733.30
67.89 -208.89 1733.28
68.17 -208.83 1733.26
68.00 -208.79 1733.31
68.32 -208.73 1733.30
68.44 -208.75 1733.26
68.70 -208.81 1733.18
69.10 -208.82 1733.22
59.15 -209.17 1732.93
59.06 -208.91 1733.05
59.51 -209.18 1733.17
59.44 -209.28 1733.07
59.27 -209.14 1733.04
59.93 -209.29 1733.30
59.75 -209.14 1733.31
60.66 -209.10 1733.29
60.53 -208.97 1733.32
60.81 -209.05 1733.20
60.95 -209.12 1733.21
61.22 -209.21 1733.19
67.59 -209.33 1733.16
67.74 -209.04 1733.23
67.79 -209.01 1733.23
68.34 -209.11 1733.05
68.41 -208.94 1733.14
68.23 -209.00 1733.14
68.64 -209.03 1733.04
68.62 -209.17 1732.95
69.22 -209.00 1733.01
69.38 -208.93 1733.16
69.54 -209.01 1733.12
69.55 -208.90 1733.28
69.89 -209.03 1733.38
69.93 -209.12 1733.22
69.95 -209.20 1733.05
70.12 -209.21 1733.17
70.30 -209.27 1733.22
59.70 -209.74 1733.06
59.86 -209.41 1733.23
59.69 -209.63 1733.08
59.85 -209.67 1733.15
60.27 -209.31 1733.34
60.22 -209.41 1733.32
60.14 -209.57 1733.30
61.23 -209.21 1733.18
61.24 -209.18 1733.06
61.55 -209.34 1733.08
67.42 -209.40 1733.21
70.22 -209.28 1733.11
70.43 -209.38 1733.08
70.53 -209.36 1733.25
70.54 -209.39 1733.19
70.84 -209.55 1733.12
70.93 -209.61 1733.19
59.86 -209.74 1733.14
59.99 -209.66 1733.22
60.15 -209.84 1733.35
61.87 -209.54 1733.26
61.93 -209.60 1733.41
62.21 -209.73 1733.45
62.12 -209.71 1733.50
62.46 -209.83 1733.31
67.55 -210.00 1733.14
67.22 -209.99 1733.34
67.11 -209.70 1733.36
67.26 -209.67 1733.26
67.11 -209.90 1733.40
71.26 -209.92 1733.01
71.28 -210.00 1733.11
71.30 -210.09 1733.20
59.85 -209.89 1733.16
59.82 -210.04 1733.14
59.83 -210.07 1733.14
59.90 -210.34 1733.28
59.89 -210.34 1733.27
62.54 -209.88 1733.33
62.67 -209.98 1733.20
67.55 -210.25 1733.23
67.50 -210.26 1733.26
67.40 -210.08 1733.26
67.64 -210.14 1733.12
67.67 -210.14 1733.10
71.50 -210.30 1733.07
71.39 -210.23 1733.21
71.37 -210.14 1733.13
59.93 -210.44 1733.36
59.77 -210.40 1733.15
59.78 -210.75 1733.31
62.89 -210.27 1732.79
62.96 -210.21 1733.14
63.07 -210.33 1732.97
63.01 -210.29 1732.99
63.38 -210.52 1733.17
63.11 -210.30 1733.17
67.90 -210.59 1733.11
67.82 -210.57 1733.17
67.99 -210.64 1733.03
71.60 -210.53 1733.12
71.47 -210.47 1733.31
71.60 -210.48 1733.08
59.72 -211.09 1733.39
59.79 -210.89 1733.38
59.68 -211.01 1733.14
63.86 -210.90 1733.11
63.55 -210.67 1733.03
63.64 -210.76 1733.27
63.54 -210.66 1733.12
63.98 -211.01 1733.22
64.08 -211.06 1733.09
64.01 -211.03 1733.21
68.06 -210.92 1733.16
68.21 -211.05 1733.02
71.87 -211.12 1733.15
71.90 -210.98 1733.01
59.76 -211.39 1733.31
59.74 -211.31 1733.02
59.72 -211.25 1733.32
64.20 -211.11 1733.01
64.13 -211.08 1733.05
68.15 -211.09 1733.17
68.31 -211.26 1733.05
59.95 -211.61 1733.04
60.03 -211.69 1733.11
59.94 -211.62 1733.28
64.68 -211.56 1733.26
64.47 -211.38 1733.22
64.57 -211.42 1733.15
64.90 -211.62 1733.16
65.05 -211.68 1733.12
68.62 -211.71 1733.08
68.54 -211.70 1733.24
68.50 -211.67 1733.26
72.14 -211.70 1733.10
60.20 -211.82 1733.05
60.05 -211.73 1733.30
60.54 -212.05 1733.48
60.40 -211.99 1733.39
60.38 -211.97 1733.18
60.57 -212.09 1733.10
64.96 -211.74 1733.28
65.17 -211.80 1733.19
65.22 -211.93 1733.34
65.44 -211.94 1733.19
65.59 -211.93 1733.05
65.74 -212.15 1733.23
65.78 -212.18 1733.24
68.79 -211.84 1733.09
68.78 -211.89 1733.27
69.16 -212.09 1733.21
69.20 -212.09 1733.12
69.00 -211.99 1733.14
69.52 -212.23 1733.18
69.57 -212.25 1733.17
71.86 -212.08 1733.30
72.22 -211.93 1733.06
61.11 -212.39 1733.09
60.93 -212.32 1733.21
60.95 -212.31 1733.11
60.74 -212.19 1733.31
60.75 -212.20 1733.33
60.76 -212.20 1733.42
66.02 -212.35 1733.25
65.86 -212.15 1733.12
65.85 -212.15 1733.14
66.26 -212.40 1733.12
69.76 -212.35 1733.21
69.83 -212.39 1733.08
72.06 -212.32 1733.11
71.99 -212.13 1733.20
61.31 -212.53 1733.17
61.15 -212.48 1733.37
66.42 -212.67 1733.15
66.48 -212.72 1733.08
70.26 -212.54 1733.22
70.06 -212.48 1733.16
70.40 -212.61 1733.18
70.57 -212.59 1733.25
70.56 -212.57 1733.27
70.97 -212.82 1733.05
71.16 -212.81 1733.11
70.99 -212.61 1733.28
70.73 -212.55 1733.33
70.74 -212.51 1733.39
71.64 -212.50 1733.26
71.77 -212.57 1733.15
71.74 -212.47 1733.23
61.50 -212.68 1733.29
61.96 -212.88 1733.22
61.96 -212.86 1733.12
61.75 -212.74 1732.97
61.84 -212.78 1732.92
62.40 -213.06 1733.21
62.28 -213.02 1733.03
62.30 -213.03 1733.05
62.51 -213.11 1733.17
62.72 -213.15 1733.27
66.47 -212.85 1733.16
66.47 -213.14 1733.24
66.58 -213.15 1733.11
66.56 -213.24 1733.18
71.02 -212.90 1732.97
70.90 -212.97 1732.83
70.90 -212.87 1732.97
71.64 -212.86 1733.03
71.06 -213.06 1732.78
71.12 -212.96 1732.93
62.59 -213.15 1733.15
62.69 -213.16 1733.23
63.46 -213.39 1733.22
63.41 -213.51 1733.04
63.11 -213.38 1733.01
63.34 -213.31 1733.25
62.96 -213.17 1733.29
63.74 -213.37 1733.33
63.64 -213.57 1733.08
63.67 -213.49 1733.18
66.48 -213.46 1733.29
66.48 -213.43 1733.28
63.88 -213.44 1733.31
64.30 -213.61 1733.33
63.82 -213.45 1733.27
63.90 -213.54 1733.22
66.78 -213.47 1733.05
66.66 -213.59 1733.16
66.87 -213.53 1733.00
64.11 -213.82 1733.09
64.23 -213.94 1733.06
64.39 -214.02 1733.07
63.93 -213.70 1733.09
64.48 -213.91 1733.19
64.63 -213.84 1733.28
64.60 -214.06 1733.12
64.82 -214.04 1733.20
64.59 -214.11 1733.08
66.37 -214.06 1733.29
66.61 -214.03 1733.20
66.53 -213.88 1733.26
66.90 -213.91 1733.06
66.74 -214.06 1733.14
64.84 -214.38 1733.01
64.55 -214.17 1733.03
64.97 -214.05 1733.25
64.92 -214.19 1733.15
64.99 -214.36 1733.07
65.15 -214.25 1733.17
65.12 -214.22 1733.19
65.76 -214.06 1733.36
65.66 -214.14 1733.30
65.36 -214.18 1733.25
65.43 -214.45 1733.12
65.66 -214.34 1733.20
65.75 -214.26 1733.25
65.69 -214.25 1733.25
65.96 -214.31 1733.24
66.01 -214.26 1733.26
65.99 -214.31 1733.24
66.03 -214.38 1733.20
66.27 -214.44 1733.14
66.14 -214.56 1733.11
66.46 -214.39 1733.14
66.53 -214.52 1733.10
66.90 -214.18 1733.08
66.67 -214.25 1733.15
67.07 -214.21 1733.01
66.96 -214.29 1733.04
66.19 -214.63 1733.08
66.47 -214.58 1733.08
66.80 -214.77 1732.96
66.84 -214.74 1732.96
66.57 -214.83 1732.97
66.72 -214.77 1732.98
42.91 -188.17 1733.47
43.02 -188.15 1733.56
43.26 -187.97 1733.42
43.06 -188.11 1733.54
43.43 -187.92 1733.51
43.97 -187.95 1733.68
43.60 -187.87 1733.44
44.07 -187.81 1733.33
44.03 -187.83 1733.38
44.12 -187.83 1733.38
43.92 -187.84 1733.39
43.84 -187.88 1733.49
44.17 -187.96 1733.65
44.18 -187.97 1733.66
44.28 -188.02 1733.69
44.39 -187.87 1733.24
44.61 -188.15 1733.50
44.54 -188.05 1733.38
44.75 -188.29 1733.54
42.66 -188.34 1733.51
42.83 -188.31 1733.66
44.87 -188.61 1733.75
44.85 -188.39 1733.45
45.00 -188.71 1733.55
44.84 -188.48 1733.60
42.38 -188.61 1733.59
45.05 -188.81 1733.56
45.07 -189.00 1733.66
67.76 -188.71 1733.51
67.63 -188.73 1733.51
68.14 -188.72 1733.63
68.08 -188.84 1733.39
68.37 -188.86 1733.49
68.51 -188.95 1733.38
45.09 -188.97 1733.57
45.14 -189.11 1733.55
45.22 -189.24 1733.43
45.20 -189.17 1733.43
67.22 -189.04 1733.44
67.09 -189.20 1733.42
67.11 -189.13 1733.44
67.56 -188.79 1733.48
67.57 -188.83 1733.46
67.43 -189.07 1733.37
67.23 -189.20 1733.39
67.34 -189.05 1733.40
68.87 -189.03 1733.43
68.73 -188.93 1733.52
68.96 -189.12 1733.36
69.15 -189.19 1733.45
45.24 -189.52 1733.53
66.39 -189.42 1733.62
66.60 -189.27 1733.56
66.64 -189.32 1733.54
66.95 -189.48 1733.39
66.83 -189.42 1733.44
66.87 -189.42 1733.43
69.36 -189.34 1733.34
69.43 -189.30 1733.51
69.75 -189.53 1733.49
45.30 -189.76 1733.32
45.28 -189.75 1733.50
66.17 -189.68 1733.70
66.24 -189.76 1733.67
66.46 -189.94 1733.61
66.80 -189.82 1733.45
66.80 -189.64 1733.43
66.65 -189.75 1733.50
66.59 -189.82 1733.54
66.41 -189.57 1733.60
67.35 -189.85 1733.33
67.29 -189.68 1733.33
67.28 -189.73 1733.33
67.13 -189.46 1733.34
66.93 -189.55 1733.39
69.96 -189.69 1733.49
69.97 -189.80 1733.35
70.22 -189.87 1733.46
41.17 -190.29 1733.52
41.29 -190.01 1733.45
41.32 -189.94 1733.43
45.29 -190.11 1733.47
45.22 -190.39 1733.35
45.26 -190.37 1733.56
66.64 -190.01 1733.55
67.29 -190.32 1733.48
66.98 -190.42 1733.61
67.23 -190.22 1733.45
67.21 -190.04 1733.38
67.41 -190.11 1733.35
66.96 -190.18 1733.50
70.27 -189.94 1733.40
70.53 -190.06 1733.33
70.49 -190.01 1733.42
70.86 -190.13 1733.58
71.03 -190.16 1733.42
71.13 -190.21 1733.57
71.36 -190.24 1733.44
71.43 -190.28 1733.55
71.64 -190.24 1733.46
71.67 -190.25 1733.48
71.84 -190.23 1733.38
72.22 -190.31 1733.27
41.15 -190.52 1733.41
67.43 -190.38 1733.45
67.35 -190.48 1733.53
67.16 -190.73 1733.71
67.55 -190.79 1733.57
67.38 -190.43 1733.49
67.60 -190.40 1733.39
67.57 -190.27 1733.35
67.79 -190.52 1733.37
67.65 -190.66 1733.48
72.19 -190.38 1733.43
72.19 -190.46 1733.48
72.40 -190.71 1733.47
41.21 -190.89 1733.58
41.26 -190.95 1733.48
41.19 -190.81 1733.52
67.93 -190.88 1733.47
68.13 -190.84 1733.36
68.03 -190.96 1733.47
72.39 -190.84 1733.49
72.56 -190.96 1733.32
31.95 -191.19 1733.40
32.23 -191.18 1733.51
32.38 -191.21 1733.48
32.47 -191.27 1733.38
32.48 -191.32 1733.32
41.30 -191.09 1733.60
41.30 -191.11 1733.63
41.76 -191.50 1733.31
41.68 -191.41 1733.31
41.75 -191.51 1733.34
44.90 -191.31 1733.54
68.46 -191.12 1733.42
68.26 -190.93 1733.36
68.56 -191.12 1733.38
68.59 -191.22 1733.44
72.42 -191.18 1733.45
31.23 -191.59 1733.48
31.27 -191.54 1733.51
31.57 -191.34 1733.76
31.59 -191.31 1733.58
31.57 -191.32 1733.54
31.78 -191.26 1733.76
32.87 -191.43 1733.46
32.70 -191.27 1733.56
32.84 -191.36 1733.55
41.94 -191.80 1733.53
41.76 -191.68 1733.56
41.73 -191.62 1733.52
42.09 -191.77 1733.35
44.70 -191.60 1733.58
44.69 -191.58 1733.48
44.46 -191.73 1733.32
68.74 -191.40 1733.55
68.79 -191.31 1733.41
69.15 -191.58 1733.52
69.00 -191.44 1733.43
69.07 -191.49 1733.43
72.40 -191.29 1733.37
72.16 -191.50 1733.48
31.24 -191.88 1733.53
31.27 -191.92 1733.53
31.57 -192.06 1733.39
32.89 -191.62 1733.24
32.95 -191.54 1733.38
33.24 -191.73 1733.43
33.15 -191.53 1733.56
33.41 -191.87 1733.43
33.63 -191.78 1733.65
33.69 -191.74 1733.72
33.49 -191.86 1733.49
42.21 -191.92 1733.49
42.50 -192.04 1733.50
42.46 -192.03 1733.53
42.57 -191.97 1733.32
43.05 -192.13 1733.46
42.95 -192.06 1733.31
43.33 -192.11 1733.32
43.97 -192.05 1733.53
43.91 -192.05 1733.42
44.32 -191.87 1733.46
44.36 -191.78 1733.24
69.54 -191.73 1733.47
69.54 -191.71 1733.36
69.73 -191.83 1733.57
69.41 -191.68 1733.49
69.94 -191.88 1733.25
69.83 -191.81 1733.21
70.94 -192.08 1733.47
71.07 -192.08 1733.50
71.41 -191.98 1733.51
71.22 -192.10 1733.33
71.41 -192.04 1733.34
71.63 -191.83 1733.47
71.89 -191.70 1733.46
31.33 -192.19 1733.43
31.35 -192.23 1733.54
31.51 -192.15 1733.42
33.74 -192.11 1733.46
33.79 -191.92 1733.64
33.54 -192.07 1733.34
33.81 -192.11 1733.51
43.26 -192.15 1733.45
43.46 -192.19 1733.54
43.39 -192.21 1733.56
43.73 -192.13 1733.47
70.02 -191.95 1733.50
70.61 -192.05 1733.59
70.42 -192.10 1733.45
70.78 -192.12 1733.40
70.71 -192.12 1733.43
33.81 -192.59 1733.25
33.70 -192.35 1733.31
33.95 -192.59 1733.37
34.11 -192.54 1733.50
33.74 -192.21 1733.39
33.99 -192.39 1733.48
34.00 -192.52 1733.44
34.15 -192.48 1733.54
34.26 -192.43 1733.63
34.05 -192.86 1733.34
33.83 -192.75 1733.19
34.37 -192.94 1733.54
34.36 -192.89 1733.54
34.43 -193.20 1733.54
34.21 -193.15 1733.39
34.08 -193.40 1733.29
34.14 -193.48 1733.34
34.18 -193.65 1733.37
34.37 -193.58 1733.52
34.32 -193.57 1733.48
30.73 -194.12 1733.31
30.72 -193.83 1733.39
34.01 -193.78 1733.28
34.01 -193.95 1733.33
34.27 -193.99 1733.52
34.14 -193.72 1733.36
30.68 -194.16 1733.45
33.79 -194.38 1733.36
33.82 -194.18 1733.28
33.95 -194.28 1733.41
34.24 -194.12 1733.54
34.27 -194.16 1733.58
30.58 -194.73 1733.47
33.57 -194.89 1733.56
33.73 -194.81 1733.58
33.86 -194.63 1733.54
32.87 -195.19 1733.39
32.54 -195.44 1733.48
32.82 -195.32 1733.51
32.95 -195.24 1733.50
33.24 -195.10 1733.54
33.11 -195.14 1733.49
30.68 -195.15 1733.41
30.80 -195.30 1733.53
31.64 -195.61 1733.45
31.64 -195.63 1733.64
31.41 -195.57 1733.50
31.37 -195.60 1733.70
31.34 -195.54 1733.44
32.20 -195.52 1733.46
32.11 -195.60 1733.62
31.69 -195.60 1733.44
31.62 -195.60 1733.38
32.38 -195.52 1733.55
32.38 -195.59 1733.67
50.95 -201.84 1733.63
51.04 -202.11 1733.45
51.23 -201.91 1733.57
50.72 -202.05 1733.57
50.66 -202.30 1733.50
50.50 -202.30 1733.63
50.50 -202.30 1733.63
51.05 -202.37 1733.32
51.23 -202.09 1733.46
51.21 -202.02 1733.50
51.55 -202.01 1733.54
51.62 -202.01 1733.55
51.45 -202.26 1733.33
51.63 -202.17 1733.42
51.80 -202.26 1733.36
51.89 -201.97 1733.60
51.95 -202.06 1733.54
52.29 -202.25 1733.47
52.49 -202.23 1733.56
50.45 -202.77 1733.36
50.30 -202.56 1733.65
50.46 -202.60 1733.44
50.48 -202.44 1733.56
52.64 -202.30 1733.55
53.48 -202.66 1733.36
50.27 -202.99 1733.43
50.24 -202.87 1733.52
53.59 -202.72 1733.28
53.94 -202.80 1733.30
54.02 -202.77 1733.45
54.11 -202.80 1733.42
54.24 -202.80 1733.50
54.08 -202.83 1733.32
54.70 -202.88 1733.53
54.83 -202.93 1733.39
54.96 -202.93 1733.51
50.08 -203.28 1733.56
50.01 -203.28 1733.63
49.90 -203.31 1733.73
50.21 -203.07 1733.46
55.48 -203.10 1733.37
55.73 -203.19 1733.37
55.86 -203.24 1733.38
49.98 -203.51 1733.67
50.17 -203.73 1733.57
50.20 -203.49 1733.47
49.95 -203.44 1733.69
55.99 -203.29 1733.47
55.86 -203.21 1733.53
56.46 -203.47 1733.65
56.24 -203.37 1733.71
56.31 -203.38 1733.83
56.50 -203.51 1733.58
56.54 -203.56 1733.43
56.73 -203.58 1733.77
56.77 -203.61 1733.56
56.78 -203.69 1733.32
56.83 -203.68 1733.37
56.93 -203.72 1733.36
56.84 -203.62 1733.53
57.39 -203.75 1733.54
57.31 -203.92 1733.28
57.32 -203.88 1733.33
57.70 -203.91 1733.49
57.87 -203.96 1733.51
50.31 -204.02 1733.59
50.46 -204.08 1733.48
50.41 -204.04 1733.50
50.61 -204.51 1733.71
50.63 -204.28 1733.47
50.87 -204.59 1733.51
58.08 -204.16 1733.43
58.05 -204.28 1733.33
58.29 -204.14 1733.53
58.21 -204.12 1733.51
58.57 -204.44 1733.46
58.46 -204.52 1733.35
58.80 -204.35 1733.58
58.70 -204.57 1733.42
58.69 -204.57 1733.42
50.97 -204.71 1733.53
58.71 -204.59 1733.41
58.72 -204.62 1733.40
58.93 -204.59 1733.50
59.45 -204.61 1733.66
59.36 -204.67 1733.60
59.42 -204.92 1733.53
59.34 -204.78 1733.55
59.49 -204.64 1733.66
51.57 -205.08 1733.44
51.52 -205.03 1733.25
52.85 -205.03 1733.56
52.90 -205.07 1733.46
52.82 -205.01 1733.62
52.68 -204.99 1733.71
53.04 -205.06 1733.43
53.23 -204.95 1733.64
53.27 -204.94 1733.66
53.26 -204.98 1733.56
53.19 -205.07 1733.35
53.66 -204.94 1733.54
53.61 -205.12 1733.32
53.50 -205.08 1733.35
53.42 -205.13 1733.28
53.87 -205.11 1733.39
53.89 -205.04 1733.48
59.02 -204.93 1733.38
58.90 -204.89 1733.36
58.80 -204.97 1733.30
58.72 -204.86 1733.32
54.71 -205.42 1733.35
54.66 -205.29 1733.44
55.03 -205.51 1733.41
54.97 -205.35 1733.53
55.33 -205.49 1733.56
55.19 -205.53 1733.46
59.00 -205.13 1733.33
59.23 -205.23 1733.40
59.22 -205.25 1733.39
59.39 -205.38 1733.42
59.43 -205.23 1733.46
59.55 -205.19 1733.51
59.33 -205.14 1733.45
59.76 -205.61 1733.56
59.74 -205.33 1733.58
59.72 -205.27 1733.57
59.55 -205.36 1733.49
55.36 -205.74 1733.34
55.83 -205.78 1733.54
55.73 -205.66 1733.59
55.56 -205.71 1733.46
55.53 -205.75 1733.41
55.99 -205.76 1733.63
59.12 -205.90 1733.24
59.12 -205.87 1733.25
59.53 -205.69 1733.46
59.44 -205.80 1733.42
59.48 -205.71 1733.44
55.56 -205.89 1733.30
56.01 -206.13 1733.32
56.06 -206.01 1733.44
55.78 -206.08 1733.23
56.18 -206.17 1733.40
56.24 -206.09 1733.48
56.75 -206.16 1733.71
56.78 -206.35 1733.67
59.22 -206.10 1733.30
59.21 -206.15 1733.30
59.60 -206.17 1733.52
59.77 -206.03 1733.58
59.74 -206.12 1733.58
59.85 -205.88 1733.60
56.20 -206.30 1733.33
56.19 -206.55 1733.20
56.44 -206.32 1733.48
56.53 -206.49 1733.47
59.26 -206.30 1733.33
59.18 -206.41 1733.25
59.61 -206.64 1733.60
59.65 -206.75 1733.66
56.33 -206.59 1733.29
56.52 -206.55 1733.45
56.48 -206.64 1733.41
56.78 -206.49 1733.65
59.60 -206.75 1733.62
59.33 -206.72 1733.35
56.62 -207.05 1733.45
56.75 -207.34 1733.53
56.65 -206.90 1733.51
59.38 -207.23 1733.44
59.30 -207.21 1733.31
59.51 -206.93 1733.56
59.51 -207.11 1733.61
59.37 -206.98 1733.44
56.63 -207.61 1733.36
56.61 -207.45 1733.37
56.76 -207.64 1733.47
57.49 -207.36 1733.45
57.64 -207.58 1733.28
57.63 -207.44 1733.56
59.37 -207.37 1733.54
59.30 -207.48 1733.36
57.02 -207.92 1733.48
57.46 -207.61 1733.28
57.30 -207.72 1733.44
57.74 -207.64 1733.35
57.76 -207.67 1733.28
57.68 -207.56 1733.42
58.07 -207.89 1733.29
58.65 -207.82 1733.50
58.63 -207.78 1733.59
58.39 -207.83 1733.50
58.27 -207.88 1733.39
58.97 -207.78 1733.40
59.10 -207.69 1733.51
56.78 -207.95 1733.33
57.15 -207.89 1733.46
57.15 -208.02 1733.34
58.87 -208.21 1733.29
59.16 -208.15 1733.42
59.29 -208.07 1733.40
59.36 -207.97 1733.35
59.51 -207.98 1733.27
59.37 -207.96 1733.35
58.95 -208.45 1733.28
59.22 -208.44 1733.42
59.05 -208.43 1733.34
59.61 -208.51 1733.55
59.88 -208.47 1733.54
59.91 -208.35 1733.39
60.03 -208.52 1733.47
59.84 -208.26 1733.35
60.35 -208.65 1733.22
60.07 -208.41 1733.24
67.30 -208.50 1733.61
67.63 -208.53 1733.54
67.74 -208.58 1733.50
68.10 -208.47 1733.56
67.90 -208.53 1733.50
68.17 -208.51 1733.53
68.25 -208.42 1733.61
68.30 -208.57 1733.44
59.59 -208.62 1733.51
60.05 -208.67 1733.52
59.94 -208.70 1733.54
59.71 -208.64 1733.54
60.17 -208.69 1733.50
60.32 -208.72 1733.34
60.22 -208.79 1733.51
60.39 -208.93 1733.47
66.73 -208.97 1733.52
66.94 -208.83 1733.53
67.04 -208.79 1733.52
67.39 -208.63 1733.52
67.37 -208.65 1733.51
67.75 -208.72 1733.40
68.60 -208.68 1733.33
68.66 -208.69 1733.32
68.68 -208.72 1733.29
69.21 -208.73 1733.43
69.15 -208.72 1733.42
69.35 -208.79 1733.45
69.21 -208.70 1733.59
69.59 -208.85 1733.58
69.63 -208.87 1733.52
59.91 -208.93 1733.48
59.80 -209.04 1733.39
60.32 -209.21 1733.39
60.07 -209.10 1733.44
60.28 -209.09 1733.49
60.60 -209.31 1733.44
60.92 -209.36 1733.53
60.96 -209.37 1733.53
61.03 -209.23 1733.33
66.82 -208.97 1733.50
67.07 -209.29 1733.35
67.06 -208.94 1733.46
67.38 -208.91 1733.39
67.58 -209.02 1733.28
67.33 -208.96 1733.38
67.28 -209.09 1733.34
70.27 -209.21 1733.38
60.43 -209.29 1733.40
60.49 -209.52 1733.48
60.72 -209.49 1733.58
61.17 -209.37 1733.46
61.11 -209.37 1733.48
61.54 -209.39 1733.22
61.57 -209.48 1733.45
61.57 -209.44 1733.33
61.75 -209.54 1733.41
61.85 -209.60 1733.48
67.20 -209.41 1733.29
67.34 -209.24 1733.27
70.43 -209.32 1733.60
70.59 -209.43 1733.54
70.86 -209.57 1733.30
70.82 -209.58 1733.45
70.65 -209.50 1733.60
60.39 -209.85 1733.58
60.43 -209.95 1733.66
60.35 -209.81 1733.52
60.42 -209.75 1733.55
62.31 -209.78 1733.53
62.61 -209.93 1733.53
70.93 -209.86 1733.64
71.10 -209.97 1733.48
71.10 -209.90 1733.41
60.15 -210.21 1733.51
60.09 -210.01 1733.37
60.13 -210.01 1733.41
62.74 -210.02 1733.49
62.92 -210.20 1733.48
62.74 -210.02 1733.55
67.37 -210.37 1733.42
67.13 -210.16 1733.48
67.30 -210.31 1733.44
71.12 -210.20 1733.60
71.01 -210.05 1733.67
63.35 -210.60 1733.55
63.34 -210.53 1733.44
63.10 -210.35 1733.46
63.14 -210.36 1733.42
67.51 -210.58 1733.48
67.62 -210.61 1733.41
67.58 -210.58 1733.41
71.12 -210.66 1733.77
71.16 -210.27 1733.59
71.05 -210.27 1733.70
71.29 -210.27 1733.44
71.18 -210.61 1733.68
71.27 -210.73 1733.64
71.42 -210.59 1733.44
63.78 -210.94 1733.44
63.61 -210.92 1733.63
63.74 -210.86 1733.38
63.60 -210.74 1733.40
63.86 -211.09 1733.51
63.97 -211.13 1733.44
64.15 -211.28 1733.42
67.70 -210.74 1733.46
68.00 -211.04 1733.42
67.92 -210.97 1733.50
71.48 -210.88 1733.49
71.57 -210.82 1733.39
59.76 -211.25 1733.48
68.21 -211.32 1733.37
68.06 -211.09 1733.38
71.57 -210.90 1733.40
71.49 -211.11 1733.54
71.86 -211.17 1733.17
71.60 -211.17 1733.43
71.71 -211.14 1733.32
71.60 -211.17 1733.44
59.83 -211.42 1733.50
59.96 -211.61 1733.48
59.86 -211.52 1733.33
64.20 -211.55 1733.57
64.19 -211.55 1733.59
64.35 -211.42 1733.37
64.38 -211.45 1733.38
64.40 -211.49 1733.39
68.26 -211.44 1733.55
68.48 -211.67 1733.33
71.76 -211.56 1733.33
71.66 -211.46 1733.43
71.84 -211.42 1733.24
71.90 -211.50 1733.19
71.70 -211.73 1733.43
60.04 -211.70 1733.38
60.00 -211.69 1733.31
60.48 -212.01 1733.48
64.47 -211.83 1733.61
64.31 -211.74 1733.62
64.37 -211.73 1733.58
64.46 -211.92 1733.64
64.50 -211.89 1733.62
64.82 -211.92 1733.50
64.88 -211.79 1733.38
68.45 -211.67 1733.50
68.74 -211.90 1733.54
68.57 -211.76 1733.33
69.19 -212.10 1733.42
69.32 -212.15 1733.50
68.99 -212.00 1733.65
71.57 -211.82 1733.48
71.44 -211.94 1733.52
71.46 -212.10 1733.49
72.00 -211.82 1733.23
71.85 -211.77 1733.33
60.92 -212.25 1733.59
61.18 -212.43 1733.56
61.07 -212.36 1733.55
65.15 -212.05 1733.46
65.32 -212.01 1733.36
65.61 -212.16 1733.35
65.43 -212.25 1733.48
69.73 -212.25 1733.53
69.57 -212.22 1733.47
69.45 -212.21 1733.37
69.88 -212.37 1733.31
70.57 -212.43 1733.48
70.42 -212.32 1733.60
70.26 -212.26 1733.64
70.87 -212.37 1733.49
70.84 -212.41 1733.47
70.77 -212.34 1733.54
70.61 -212.23 1733.70
70.61 -212.31 1733.61
71.36 -212.50 1733.34
71.50 -212.39 1733.38
71.26 -212.15 1733.57
71.57 -212.34 1733.37
71.76 -212.39 1733.25
71.88 -212.41 1733.19
61.31 -212.50 1733.57
61.40 -212.57 1733.51
61.54 -212.66 1733.44
66.01 -212.54 1733.44
66.09 -212.69 1733.49
70.22 -212.49 1733.31
70.22 -212.39 1733.48
70.30 -212.46 1733.39
71.53 -212.55 1733.27
71.56 -212.72 1733.15
71.25 -212.77 1733.14
71.19 -212.85 1733.08
61.50 -212.69 1733.31
61.67 -212.75 1733.32
61.77 -212.75 1733.45
62.13 -212.94 1733.31
61.83 -212.73 1733.56
62.16 -212.87 1733.45
62.40 -212.86 1733.57
62.53 -213.04 1733.40
63.04 -212.89 1733.60
62.83 -213.04 1733.46
63.21 -213.05 1733.48
63.55 -212.92 1733.60
63.32 -213.17 1733.40
63.41 -213.01 1733.53
63.53 -213.03 1733.51
63.61 -213.07 1733.51
63.93 -212.95 1733.61
63.94 -212.98 1733.60
63.87 -213.14 1733.51
66.25 -212.89 1733.40
66.22 -213.00 1733.43
66.41 -213.10 1733.31
64.12 -213.34 1733.44
64.21 -213.31 1733.47
64.24 -213.07 1733.58
64.04 -213.41 1733.40
64.70 -213.38 1733.50
64.34 -213.45 1733.42
64.78 -213.26 1733.57
64.57 -213.30 1733.52
66.09 -213.38 1733.49
66.08 -213.53 1733.48
65.79 -213.43 1733.52
66.30 -213.38 1733.38
66.27 -213.27 1733.40
66.22 -213.50 1733.43
66.44 -213.33 1733.30
64.73 -213.47 1733.47
64.37 -213.61 1733.35
64.92 -213.49 1733.49
64.96 -213.51 1733.49
64.83 -213.72 1733.38
65.18 -213.82 1733.38
65.12 -213.64 1733.45
65.36 -213.63 1733.47
65.03 -213.67 1733.43
65.95 -213.71 1733.45
65.92 -213.83 1733.42
65.83 -214.00 1733.38
66.08 -213.84 1733.42
66.36 -213.69 1733.36
65.50 -213.70 1733.46
65.45 -213.84 1733.40
65.70 -214.03 1733.36
65.74 -213.86 1733.43
65.37 -213.86 1733.38
66.01 -214.04 1733.36
66.39 -213.81 1733.33
43.35 -188.01 1733.64
44.38 -188.11 1733.81
44.48 -188.15 1733.81
44.71 -188.37 1733.82
44.58 -188.23 1733.79
42.80 -188.41 1733.83
42.79 -188.50 1733.99
42.93 -188.30 1733.75
44.78 -188.52 1733.87
44.70 -188.41 1733.91
41.82 -189.22 1733.57
41.84 -189.26 1733.73
41.91 -189.10 1733.53
42.02 -189.03 1733.70
42.57 -188.58 1733.86
42.62 -188.50 1733.79
42.60 -188.50 1733.76
42.42 -188.83 1734.06
42.24 -188.95 1733.93
42.24 -188.81 1733.72
42.31 -188.82 1733.85
42.23 -188.97 1733.96
42.07 -189.08 1733.85
42.44 -188.83 1734.08
66.56 -188.75 1733.84
66.81 -188.69 1733.78
67.02 -188.85 1733.59
66.90 -188.85 1733.64
67.12 -188.69 1733.69
67.18 -188.58 1733.79
67.31 -188.58 1733.77
67.44 -188.60 1733.70
67.58 -188.56 1733.77
67.59 -188.52 1733.84
67.70 -188.61 1733.67
67.98 -188.65 1733.70
68.17 -188.69 1733.75
68.29 -188.72 1733.85
68.24 -188.72 1733.77
68.47 -188.78 1733.81
68.65 -188.85 1733.85
45.13 -189.36 1733.77
44.99 -189.01 1733.88
66.38 -188.92 1733.83
65.96 -189.13 1733.87
66.18 -189.10 1733.82
66.18 -189.15 1733.80
66.30 -189.03 1733.81
66.62 -189.17 1733.59
66.43 -189.28 1733.64
66.51 -189.15 1733.66
68.88 -188.96 1733.75
68.74 -188.92 1733.59
69.00 -189.02 1733.71
69.20 -189.13 1733.72
69.44 -189.29 1733.78
69.39 -189.26 1733.91
41.52 -189.67 1733.54
41.72 -189.44 1733.78
41.64 -189.53 1733.69
41.44 -189.74 1733.36
41.65 -189.40 1733.36
65.62 -189.50 1733.90
66.02 -189.42 1733.76
65.52 -189.75 1733.88
65.71 -189.39 1733.89
65.73 -189.23 1733.93
65.96 -189.20 1733.84
65.59 -189.37 1733.94
69.47 -189.30 1733.62
69.84 -189.57 1733.66
69.82 -189.56 1733.67
69.90 -189.63 1733.84
69.90 -189.62 1733.64
41.64 -189.61 1733.90
41.31 -189.97 1733.48
41.28 -190.02 1733.53
45.25 -189.74 1733.60
45.20 -189.88 1733.87
65.59 -190.03 1733.87
65.66 -190.16 1733.86
65.87 -190.05 1733.80
65.91 -189.78 1733.77
65.99 -189.98 1733.76
65.42 -189.88 1733.91
65.85 -189.76 1733.79
65.66 -189.92 1733.84
70.21 -189.83 1733.72
70.14 -189.78 1733.65
41.19 -190.30 1733.64
41.30 -190.03 1733.64
41.64 -189.62 1733.92
45.27 -190.22 1733.75
70.59 -190.10 1733.77
70.43 -190.02 1733.83
70.34 -189.96 1733.82
70.84 -190.13 1733.62
71.00 -190.27 1733.73
70.96 -190.32 1733.82
71.08 -190.40 1733.86
71.08 -190.24 1733.65
41.18 -190.33 1733.65
41.20 -190.36 1733.76
41.30 -190.20 1733.87
41.23 -190.36 1733.91
41.40 -190.11 1733.99
45.27 -190.39 1733.71
45.25 -190.44 1733.67
66.02 -190.14 1733.78
65.97 -190.29 1733.83
65.91 -190.33 1733.85
66.51 -190.32 1733.72
66.32 -190.07 1733.67
66.33 -190.15 1733.70
66.89 -190.54 1733.70
66.70 -190.49 1733.74
66.77 -190.26 1733.60
66.82 -190.30 1733.59
71.21 -190.49 1733.90
71.16 -190.51 1733.93
71.38 -190.54 1733.88
71.63 -190.51 1733.80
71.81 -190.49 1733.69
71.94 -190.39 1733.58
72.23 -190.71 1733.57
72.19 -190.66 1733.57
41.16 -190.63 1733.73
41.20 -190.72 1733.86
41.20 -190.79 1733.79
45.14 -190.78 1733.65
45.06 -191.01 1733.65
45.03 -191.08 1733.73
44.96 -191.23 1733.89
45.23 -190.58 1733.80
67.48 -190.80 1733.61
67.33 -191.02 1733.82
67.10 -190.81 1733.79
71.95 -191.03 1733.72
72.01 -190.95 1733.69
71.89 -190.93 1733.76
72.27 -191.13 1733.56
72.23 -190.97 1733.58
32.01 -191.18 1733.56
31.95 -191.19 1733.53
32.08 -191.18 1733.91
32.29 -191.14 1733.73
32.47 -191.12 1733.80
32.48 -191.12 1733.79
41.26 -191.24 1733.85
44.93 -191.29 1733.83
67.38 -191.06 1733.83
67.58 -191.29 1733.91
67.52 -191.03 1733.75
67.76 -191.29 1733.84
67.70 -190.99 1733.64
68.04 -191.10 1733.58
68.03 -191.04 1733.53
68.00 -191.33 1733.79
67.92 -191.26 1733.76
72.41 -191.12 1733.50
72.15 -191.36 1733.60
31.17 -191.66 1733.87
32.01 -191.25 1734.13
32.99 -191.21 1733.84
33.10 -191.43 1733.65
32.67 -191.17 1733.75
32.68 -191.16 1733.79
33.10 -191.39 1733.70
33.52 -191.63 1733.72
33.47 -191.58 1733.73
41.56 -191.70 1733.82
41.56 -191.66 1733.78
41.49 -191.46 1733.65
44.84 -191.46 1733.68
44.58 -191.70 1733.79
68.49 -191.41 1733.70
68.48 -191.50 1733.82
68.39 -191.32 1733.62
69.02 -191.62 1733.87
68.90 -191.61 1733.88
68.79 -191.49 1733.64
69.28 -191.66 1733.85
69.21 -191.64 1733.70
69.43 -191.69 1733.80
69.64 -191.72 1733.89
71.60 -191.74 1733.69
71.91 -191.51 1733.66
71.93 -191.51 1733.64
72.16 -191.51 1733.54
31.13 -191.72 1733.86
31.14 -191.87 1733.69
34.05 -191.79 1733.91
34.19 -191.91 1733.89
34.32 -191.86 1734.02
41.92 -191.86 1733.63
41.98 -192.05 1733.80
41.80 -191.81 1733.69
42.34 -192.11 1733.69
42.02 -192.11 1733.84
42.25 -191.99 1733.58
42.39 -192.06 1733.62
42.62 -192.13 1733.63
42.98 -192.20 1733.63
44.29 -191.90 1733.57
44.46 -191.79 1733.55
44.47 -191.78 1733.79
69.65 -191.75 1733.79
69.78 -191.79 1733.74
69.94 -191.84 1733.74
71.04 -191.96 1733.70
71.05 -191.91 1733.76
71.22 -191.96 1733.65
71.27 -191.94 1733.67
71.44 -191.75 1733.79
71.51 -191.84 1733.67
31.23 -192.01 1733.63
31.21 -192.27 1733.69
31.51 -192.25 1733.56
31.38 -192.08 1733.53
34.05 -191.96 1733.75
34.28 -192.08 1733.79
34.50 -192.27 1733.83
42.67 -192.23 1733.73
42.79 -192.31 1733.82
42.74 -192.25 1733.74
43.34 -192.26 1733.68
43.15 -192.27 1733.72
43.69 -192.25 1733.88
43.52 -192.26 1733.72
43.90 -192.13 1733.71
69.96 -191.92 1733.56
70.42 -192.03 1733.61
70.36 -191.99 1733.68
30.75 -192.75 1733.88
30.95 -192.62 1733.67
31.17 -192.44 1733.62
31.27 -192.32 1733.63
31.00 -192.57 1733.67
34.42 -192.60 1733.66
34.47 -192.62 1733.68
34.72 -192.63 1733.82
34.83 -192.71 1733.85
34.65 -192.49 1733.83
30.81 -192.92 1733.70
30.66 -192.99 1733.85
30.75 -193.06 1733.74
34.77 -192.80 1733.79
35.03 -192.74 1733.96
34.92 -193.28 1733.81
34.76 -192.77 1733.79
34.60 -193.19 1733.64
34.68 -193.19 1733.69
34.66 -193.18 1733.68
34.81 -193.82 1733.78
34.48 -193.93 1733.63
34.88 -193.49 1733.79
34.65 -193.75 1733.70
34.80 -193.38 1733.74
34.73 -193.62 1733.73
34.63 -193.74 1733.69
34.70 -193.50 1733.70
30.74 -193.66 1733.35
30.67 -193.86 1733.57
30.71 -193.83 1733.44
30.73 -193.61 1733.41
30.63 -194.21 1733.56
30.47 -194.52 1733.76
34.31 -194.40 1733.68
34.24 -194.46 1733.66
34.45 -194.48 1733.78
34.47 -193.99 1733.64
34.51 -194.07 1733.68
34.60 -194.41 1733.83
34.57 -194.04 1733.70
30.39 -194.77 1733.85
30.51 -194.74 1733.61
33.92 -194.71 1733.62
34.27 -194.59 1733.72
34.27 -194.56 1733.71
30.51 -194.99 1733.64
30.40 -194.99 1733.91
33.59 -195.00 1733.65
33.99 -195.02 1733.85
33.81 -194.83 1733.64
34.27 -194.82 1733.85
34.11 -194.97 1733.87
30.54 -195.07 1733.62
30.77 -195.36 1733.72
30.79 -195.37 1733.92
30.67 -195.20 1733.60
30.61 -195.15 1733.62
31.24 -195.58 1734.10
31.27 -195.59 1734.11
31.03 -195.48 1733.94
30.96 -195.44 1733.66
32.43 -195.59 1733.70
32.63 -195.52 1733.67
32.79 -195.57 1733.84
33.02 -195.45 1733.80
33.37 -195.36 1733.88
33.44 -195.22 1733.78
33.16 -195.32 1733.75
33.26 -195.14 1733.60
33.64 -195.14 1733.79
31.66 -195.69 1733.85
31.74 -195.68 1733.80
32.19 -195.67 1733.78
32.26 -195.64 1733.71
32.43 -195.68 1733.85
50.48 -201.58 1733.89
50.76 -201.51 1733.84
50.86 -201.39 1733.91
50.93 -201.50 1733.84
51.25 -201.45 1733.89
51.38 -201.49 1733.87
51.32 -201.44 1733.90
50.70 -201.84 1733.67
50.56 -202.10 1733.66
50.45 -202.12 1733.73
50.61 -201.96 1733.67
50.73 -201.94 1733.62
51.22 -201.73 1733.70
51.38 -201.68 1733.75
51.53 -201.63 1733.80
51.66 -201.69 1733.79
51.66 -201.63 1733.83
52.16 -201.96 1733.70
52.21 -201.98 1733.71
51.96 -201.97 1733.62
52.48 -202.17 1733.61
52.59 -202.06 1733.80
52.47 -202.04 1733.75
52.76 -202.18 1733.74
52.75 -202.29 1733.61
53.08 -202.27 1733.83
50.10 -202.42 1733.98
50.15 -202.54 1733.87
50.22 -202.63 1733.72
50.21 -202.74 1733.65
53.03 -202.39 1733.63
53.06 -202.46 1733.52
53.46 -202.50 1733.72
53.50 -202.52 1733.72
53.42 -202.59 1733.48
53.34 -202.57 1733.47
53.78 -202.66 1733.57
53.75 -202.61 1733.68
54.06 -202.64 1733.89
54.06 -202.65 1733.85
50.01 -202.81 1733.87
50.14 -202.92 1733.60
54.27 -202.71 1733.89
54.28 -202.76 1733.67
54.58 -202.80 1733.84
54.76 -202.85 1733.76
54.85 -202.89 1733.64
55.03 -202.92 1733.70
55.22 -203.00 1733.55
55.26 -203.01 1733.57
49.91 -203.29 1733.72
50.03 -203.10 1733.64
55.66 -203.10 1733.85
55.50 -203.06 1733.73
55.75 -203.16 1733.56
55.75 -203.14 1733.74
55.90 -203.20 1733.72
49.93 -203.66 1733.78
50.01 -203.70 1733.71
50.10 -203.82 1733.67
56.70 -203.55 1733.90
56.37 -203.40 1733.93
56.91 -203.59 1733.83
57.09 -203.64 1733.64
57.37 -203.68 1733.75
57.41 -203.71 1733.67
57.65 -203.75 1733.75
57.72 -203.73 1733.84
57.96 -203.79 1733.82
58.39 -203.88 1733.88
50.33 -204.16 1733.70
50.24 -203.89 1733.57
50.33 -204.14 1733.69
58.10 -203.90 1733.70
58.41 -204.07 1733.65
58.16 -203.97 1733.63
58.69 -203.92 1733.96
58.74 -204.09 1733.78
58.87 -204.23 1733.71
58.94 -204.31 1733.66
59.12 -204.26 1733.77
59.54 -204.39 1733.83
59.79 -204.47 1733.90
50.90 -204.82 1733.75
50.77 -204.65 1733.67
50.81 -204.70 1733.68
52.38 -204.95 1734.14
52.45 -204.88 1734.28
52.85 -204.81 1734.18
52.82 -204.80 1734.24
53.36 -204.70 1733.95
53.07 -204.82 1733.89
53.52 -204.76 1733.81
53.11 -204.89 1733.80
53.40 -204.89 1733.71
53.56 -204.72 1733.84
53.88 -204.67 1733.85
53.96 -204.84 1733.69
54.44 -204.75 1733.87
55.09 -204.90 1733.88
55.00 -204.84 1733.91
59.34 -204.25 1733.87
59.25 -204.30 1733.79
59.77 -204.79 1733.70
59.56 -204.63 1733.69
59.71 -204.54 1733.81
59.98 -204.64 1733.89
60.07 -204.77 1733.85
51.15 -204.90 1733.63
51.29 -205.06 1733.74
51.03 -204.95 1733.85
51.17 -205.03 1733.86
51.61 -205.13 1734.08
51.74 -205.13 1733.63
51.69 -205.13 1734.02
51.64 -205.10 1733.47
51.32 -205.08 1733.76
51.88 -205.13 1733.87
51.86 -205.13 1733.74
52.06 -205.11 1733.63
52.21 -205.10 1733.61
52.18 -205.05 1733.96
52.04 -205.05 1734.12
52.06 -205.09 1733.94
52.42 -205.03 1733.78
52.44 -205.04 1733.69
52.28 -204.99 1734.10
52.48 -204.97 1733.96
54.25 -204.97 1733.62
53.95 -204.91 1733.63
54.36 -204.82 1733.78
54.28 -205.05 1733.55
54.19 -204.89 1733.69
54.17 -204.87 1733.70
54.82 -204.83 1733.88
54.49 -205.06 1733.58
54.44 -205.19 1733.45
54.74 -205.14 1733.60
55.14 -205.08 1733.78
55.06 -205.13 1733.72
55.44 -205.06 1733.88
55.54 -205.11 1733.88
55.36 -204.88 1733.97
55.33 -204.88 1733.96
59.99 -204.94 1733.74
60.26 -204.89 1733.90
60.25 -204.89 1733.90
55.19 -205.16 1733.74
55.33 -205.31 1733.69
55.49 -205.17 1733.83
55.22 -205.29 1733.66
55.10 -205.34 1733.58
55.74 -205.55 1733.68
55.58 -205.36 1733.74
56.04 -205.50 1733.81
60.38 -205.29 1733.83
60.21 -205.26 1733.77
60.20 -205.57 1733.74
60.07 -205.17 1733.72
59.93 -205.47 1733.64
59.98 -205.41 1733.67
56.06 -205.59 1733.75
55.98 -205.61 1733.72
56.35 -205.52 1733.87
56.27 -205.79 1733.69
56.49 -205.47 1733.93
56.71 -205.52 1733.97
56.69 -205.72 1733.87
60.53 -205.73 1733.86
60.53 -205.73 1733.86
60.29 -205.71 1733.77
56.44 -205.87 1733.70
56.29 -205.88 1733.64
56.80 -205.90 1733.84
56.54 -205.99 1733.68
56.60 -205.88 1733.76
56.99 -205.93 1733.96
56.90 -206.26 1733.79
59.91 -206.17 1733.67
59.96 -206.09 1733.69
59.99 -206.34 1733.73
59.96 -205.95 1733.67
60.63 -206.23 1733.95
60.83 -206.20 1734.01
60.69 -206.26 1733.98
60.68 -205.85 1733.92
60.21 -206.17 1733.81
60.35 -205.87 1733.80
60.23 -206.32 1733.85
60.33 -205.88 1733.80
56.95 -206.47 1733.78
60.04 -206.49 1733.79
59.91 -206.62 1733.76
60.07 -206.47 1733.80
59.79 -206.67 1733.71
56.75 -206.66 1733.61
56.89 -206.69 1733.71
56.97 -206.63 1733.79
59.75 -206.81 1733.74
59.90 -206.84 1733.87
59.84 -206.79 1733.79
59.81 -207.07 1733.98
56.97 -206.89 1733.75
56.77 -207.17 1733.58
56.88 -207.25 1733.64
56.97 -207.06 1733.73
57.35 -207.00 1733.92
57.43 -207.11 1733.84
57.41 -207.11 1733.84
57.58 -207.24 1733.78
57.64 -207.21 1733.85
59.65 -206.91 1733.70
59.59 -206.97 1733.65
57.01 -207.37 1733.67
57.02 -207.37 1733.67
57.17 -207.53 1733.64
57.16 -207.33 1733.71
57.69 -207.37 1733.73
57.79 -207.42 1733.74
58.37 -207.60 1733.82
58.09 -207.56 1733.78
58.87 -207.60 1733.86
59.14 -207.62 1733.71
59.37 -207.46 1733.80
59.39 -207.35 1733.60
59.55 -207.23 1733.75
56.99 -207.68 1733.60
57.81 -207.61 1733.54
58.46 -207.67 1733.76
58.37 -207.64 1733.77
58.05 -207.74 1733.53
58.82 -207.74 1733.65
58.42 -207.75 1733.64
58.65 -207.68 1733.74
59.11 -207.65 1733.63
66.03 -207.78 1733.91
66.18 -207.85 1733.88
66.20 -207.88 1733.86
59.60 -208.26 1733.61
65.64 -208.13 1733.89
65.70 -207.80 1733.95
65.70 -207.78 1733.95
66.41 -207.89 1733.86
66.47 -207.75 1733.92
66.65 -207.77 1733.91
66.61 -207.92 1733.85
66.97 -207.94 1733.86
66.62 -208.06 1733.80
67.36 -208.16 1733.78
67.41 -208.14 1733.81
59.64 -208.39 1733.59
65.62 -208.62 1733.86
65.56 -208.44 1733.87
65.62 -208.75 1733.86
65.55 -208.22 1733.89
65.81 -208.15 1733.85
65.91 -208.33 1733.79
66.45 -208.41 1733.71
66.44 -208.48 1733.69
66.21 -208.06 1733.81
66.32 -208.08 1733.80
66.14 -208.28 1733.77
66.57 -208.46 1733.69
66.49 -208.54 1733.67
66.90 -208.26 1733.75
66.93 -208.14 1733.79
66.95 -208.22 1733.77
67.26 -208.20 1733.76
67.29 -208.28 1733.72
67.77 -208.25 1733.75
68.05 -208.35 1733.66
68.02 -208.38 1733.63
68.18 -208.30 1733.76
68.41 -208.28 1733.91
68.27 -208.35 1733.73
68.58 -208.50 1733.55
68.75 -208.48 1733.77
68.70 -208.46 1733.74
68.78 -208.55 1733.62
68.86 -208.59 1733.53
66.15 -208.94 1733.69
65.79 -208.77 1733.81
65.95 -208.60 1733.76
66.07 -208.88 1733.72
65.99 -209.02 1733.75
66.07 -209.07 1733.72
66.54 -208.88 1733.58
66.46 -208.84 1733.61
66.13 -208.75 1733.70
66.04 -208.56 1733.73
66.73 -208.76 1733.59
66.75 -208.65 1733.62
66.90 -208.51 1733.65
67.01 -208.37 1733.71
69.88 -209.02 1733.64
69.92 -209.05 1733.71
66.02 -209.42 1733.88
65.86 -209.17 1733.84
66.17 -209.27 1733.75
66.56 -209.18 1733.54
66.67 -209.14 1733.51
70.15 -209.16 1733.69
70.06 -209.12 1733.61
70.13 -209.19 1733.82
60.86 -209.66 1733.73
60.73 -209.65 1733.69
61.00 -209.46 1733.62
61.14 -209.61 1733.77
61.17 -209.61 1733.77
61.18 -209.54 1733.70
61.13 -209.53 1733.70
61.53 -209.68 1733.81
61.60 -209.56 1733.63
61.75 -209.64 1733.68
66.98 -209.78 1733.45
66.85 -209.47 1733.44
66.99 -209.64 1733.41
66.52 -209.31 1733.57
66.63 -209.39 1733.53
66.93 -209.79 1733.48
66.52 -209.66 1733.68
66.78 -209.85 1733.58
66.59 -209.69 1733.64
66.78 -209.85 1733.58
66.34 -209.63 1733.78
70.32 -209.28 1733.71
70.38 -209.43 1733.85
70.41 -209.58 1733.96
70.60 -209.48 1733.64
60.80 -209.90 1733.86
60.71 -209.79 1733.75
61.99 -209.83 1733.82
62.30 -209.94 1733.81
62.05 -209.81 1733.75
62.37 -209.86 1733.67
62.54 -209.91 1733.61
66.76 -209.93 1733.64
66.65 -209.99 1733.77
66.52 -209.79 1733.73
70.45 -209.72 1734.00
70.60 -209.72 1733.87
60.32 -210.40 1733.79
60.15 -210.40 1733.60
62.61 -210.02 1733.71
62.86 -210.20 1733.69
62.90 -210.27 1733.72
66.84 -210.23 1733.79
66.82 -210.27 1733.84
66.75 -210.09 1733.76
67.03 -210.27 1733.64
66.94 -210.28 1733.74
70.80 -210.05 1733.86
70.74 -210.06 1733.91
70.58 -209.89 1733.96
70.81 -209.83 1733.75
59.86 -210.86 1733.51
60.13 -210.67 1733.73
60.15 -210.47 1733.63
60.20 -210.51 1733.71
62.88 -210.48 1733.80
62.99 -210.68 1733.81
62.92 -210.43 1733.76
63.33 -210.78 1733.71
63.31 -210.69 1733.68
63.17 -210.59 1733.70
63.20 -210.62 1733.69
67.18 -210.54 1733.72
67.06 -210.58 1733.87
67.25 -210.46 1733.58
67.43 -210.69 1733.65
59.81 -210.95 1733.52
59.86 -210.91 1733.53
60.19 -210.76 1733.84
63.50 -211.11 1733.82
63.39 -211.06 1733.83
67.27 -210.80 1733.92
67.82 -211.07 1733.96
67.90 -211.05 1733.71
67.54 -210.82 1733.75
71.08 -211.11 1733.90
71.28 -211.00 1733.74
59.95 -211.30 1733.72
60.03 -211.29 1733.77
63.55 -210.99 1733.72
63.57 -211.13 1733.79
68.19 -211.33 1733.76
68.01 -211.17 1733.84
68.10 -211.26 1733.87
71.17 -211.21 1733.83
71.40 -211.22 1733.66
59.89 -211.38 1733.64
60.15 -211.56 1733.74
60.09 -211.59 1733.67
60.21 -211.68 1733.68
63.70 -211.24 1733.75
63.57 -211.21 1733.82
63.81 -211.21 1733.68
64.01 -211.38 1733.61
63.97 -211.44 1733.66
68.25 -211.42 1733.59
68.46 -211.60 1733.80
68.50 -211.65 1733.75
71.22 -211.59 1733.76
71.28 -211.51 1733.73
71.45 -211.51 1733.61
71.34 -211.62 1733.67
60.50 -211.93 1733.64
60.46 -211.90 1733.64
60.70 -211.94 1733.78
64.00 -211.84 1733.76
64.15 -211.76 1733.69
64.20 -211.87 1733.69
64.39 -212.10 1733.71
64.30 -212.09 1733.73
68.51 -211.70 1733.63
69.00 -211.94 1733.82
68.67 -211.75 1733.88
69.05 -211.95 1733.83
69.32 -212.00 1733.88
70.65 -211.97 1733.90
70.29 -211.95 1733.96
70.71 -212.15 1733.74
70.67 -212.05 1733.82
70.95 -211.80 1733.85
70.96 -212.02 1733.76
71.03 -211.78 1733.83
71.27 -211.84 1733.67
71.17 -211.83 1733.74
71.41 -211.79 1733.59
61.01 -212.26 1733.69
61.25 -212.11 1733.85
61.27 -212.10 1733.86
61.39 -212.21 1733.82
61.39 -212.13 1733.87
61.53 -212.49 1733.72
61.68 -212.25 1733.87
61.79 -212.31 1733.85
63.84 -212.17 1733.81
63.53 -212.18 1733.84
63.98 -212.22 1733.79
64.06 -212.30 1733.77
64.19 -212.26 1733.76
64.43 -212.37 1733.73
64.70 -212.40 1733.70
64.61 -212.51 1733.71
64.62 -212.19 1733.67
65.13 -212.34 1733.60
64.88 -212.08 1733.58
65.25 -212.27 1733.56
69.40 -212.09 1733.72
69.74 -212.23 1733.58
69.47 -212.15 1733.61
69.39 -212.16 1733.54
69.96 -212.23 1733.65
69.90 -212.14 1733.76
70.04 -212.12 1733.78
70.27 -212.14 1733.78
70.43 -212.17 1733.77
70.25 -212.25 1733.66
61.62 -212.52 1733.73
61.81 -212.57 1733.71
62.03 -212.59 1733.71
62.30 -212.82 1733.59
62.09 -212.78 1733.57
62.25 -212.66 1733.69
62.42 -212.78 1733.62
62.64 -212.76 1733.65
62.45 -212.79 1733.62
62.84 -212.90 1733.60
62.80 -212.76 1733.67
63.13 -212.79 1733.66
63.28 -212.31 1733.82
63.39 -212.24 1733.84
63.51 -212.71 1733.69
63.62 -212.83 1733.65
63.49 -212.62 1733.72
63.51 -212.79 1733.66
63.78 -212.43 1733.78
63.60 -212.41 1733.79
63.80 -212.54 1733.75
64.13 -212.64 1733.72
64.27 -212.64 1733.71
64.41 -212.57 1733.72
64.37 -212.78 1733.68
64.65 -212.85 1733.68
64.79 -212.73 1733.69
65.04 -212.61 1733.67
65.00 -212.75 1733.67
65.15 -212.66 1733.65
65.41 -212.68 1733.61
65.35 -212.37 1733.55
65.67 -212.49 1733.48
65.62 -212.56 1733.52
65.50 -212.80 1733.61
65.88 -212.48 1733.43
65.77 -212.61 1733.50
65.94 -212.57 1733.46
63.92 -212.54 1733.75
63.98 -212.59 1733.74
64.02 -212.73 1733.70
65.93 -212.80 1733.53
65.76 -212.83 1733.57
64.47 -212.97 1733.64
64.74 -213.20 1733.59
64.55 -212.98 1733.64
64.94 -212.99 1733.64
65.17 -213.05 1733.60
65.40 -212.86 1733.62
65.32 -212.90 1733.62
65.16 -213.32 1733.56
65.18 -213.17 1733.58
65.26 -213.31 1733.56
65.19 -213.33 1733.56
65.80 -213.19 1733.54
65.82 -213.05 1733.56
65.70 -213.11 1733.56
65.83 -213.01 1733.56
43.48 -188.10 1733.85
43.79 -188.09 1733.95
43.72 -188.00 1733.79
44.25 -188.12 1733.93
44.22 -188.12 1733.95
42.96 -188.53 1734.18
42.95 -188.57 1734.21
43.35 -188.28 1734.00
43.23 -188.27 1733.94
43.35 -188.45 1734.30
43.16 -188.35 1734.03
43.35 -188.48 1734.36
43.35 -188.16 1733.85
43.83 -188.15 1734.04
44.11 -188.23 1734.13
44.27 -188.33 1734.21
44.28 -188.24 1734.09
44.40 -188.36 1734.16
44.52 -188.43 1734.16
66.40 -188.66 1734.01
66.44 -188.67 1734.00
66.42 -188.69 1733.98
66.61 -188.57 1734.09
66.84 -188.63 1733.86
66.80 -188.43 1734.20
66.86 -188.56 1733.96
67.26 -188.46 1733.93
67.18 -188.42 1734.02
66.93 -188.56 1733.92
67.21 -188.46 1733.94
67.35 -188.32 1734.18
67.53 -188.46 1733.95
67.60 -188.42 1734.07
67.65 -188.47 1733.97
67.88 -188.55 1733.93
42.39 -188.99 1734.42
42.08 -189.18 1734.05
42.51 -188.83 1734.28
42.44 -188.88 1734.21
42.27 -189.01 1734.09
42.44 -188.90 1734.28
44.67 -188.69 1734.31
44.78 -188.64 1734.00
44.86 -188.73 1733.94
65.42 -189.00 1734.12
65.62 -189.09 1733.99
65.77 -188.92 1734.05
65.90 -188.86 1734.05
65.87 -188.91 1734.02
66.18 -188.71 1734.06
66.33 -188.76 1733.94
65.96 -188.96 1733.94
65.90 -188.91 1734.01
68.06 -188.60 1734.03
68.40 -188.74 1733.95
68.62 -188.86 1734.15
68.61 -188.85 1734.07
44.89 -188.78 1733.90
44.92 -188.84 1733.88
44.98 -189.08 1733.98
45.01 -189.23 1734.04
65.22 -189.20 1734.11
65.33 -189.00 1734.18
68.86 -188.98 1734.02
68.91 -189.08 1734.19
69.03 -189.09 1734.01
69.03 -189.08 1734.00
41.61 -189.74 1734.52
41.63 -189.66 1734.16
41.75 -189.62 1734.69
41.82 -189.51 1734.55
41.88 -189.49 1734.76
41.69 -189.59 1734.16
45.02 -189.42 1734.18
45.07 -189.58 1734.09
45.14 -189.51 1733.85
64.90 -189.44 1734.21
64.96 -189.51 1734.16
65.04 -189.53 1734.12
65.25 -189.75 1733.98
65.38 -189.31 1734.01
65.30 -189.61 1733.98
65.58 -189.26 1733.97
69.30 -189.32 1734.14
69.37 -189.29 1734.01
69.44 -189.44 1734.14
69.61 -189.60 1734.13
69.63 -189.51 1734.00
69.91 -189.83 1734.05
69.89 -189.64 1733.87
69.90 -189.68 1733.91
45.16 -189.72 1733.90
45.15 -189.60 1733.87
64.62 -190.06 1734.13
64.64 -189.71 1734.23
64.93 -189.88 1734.06
64.87 -189.72 1734.14
64.79 -189.95 1734.10
64.89 -189.90 1734.07
41.40 -190.09 1734.10
41.36 -190.17 1734.10
41.33 -190.20 1734.20
41.65 -189.61 1734.02
41.63 -189.65 1734.04
41.39 -190.06 1734.33
45.14 -190.20 1734.13
45.15 -190.24 1734.12
45.20 -190.30 1734.01
70.34 -190.05 1733.94
70.11 -189.85 1733.90
45.22 -190.45 1733.92
65.09 -190.02 1733.98
64.88 -190.23 1734.01
65.02 -190.14 1733.99
64.84 -190.31 1734.02
65.17 -190.03 1733.96
64.71 -190.07 1734.09
64.51 -190.11 1734.15
64.62 -190.17 1734.10
64.41 -190.33 1734.14
64.50 -190.22 1734.13
64.77 -190.03 1734.08
65.23 -190.38 1733.95
65.54 -190.33 1733.90
65.21 -190.09 1733.96
65.58 -190.29 1733.89
65.31 -190.64 1733.97
65.42 -190.43 1733.92
65.72 -190.55 1733.92
65.78 -190.69 1733.96
66.06 -190.46 1733.87
66.16 -190.49 1733.87
65.85 -190.73 1733.97
66.39 -190.59 1733.86
66.32 -190.46 1733.82
70.17 -190.03 1734.06
70.39 -190.21 1734.02
70.16 -190.11 1734.11
70.22 -190.30 1734.18
70.52 -190.32 1734.01
70.81 -190.42 1733.98
