5.78 2.88 2.80
4.08 2.78 2.80
5.66 2.55 2.80
5.58 2.47 2.80
5.36 2.30 2.80
5.25 2.26 2.80
4.69 2.25 2.80
5.06 3.94 3.00
4.91 3.94 3.00
4.76 3.90 3.00
4.57 3.83 3.00
5.45 3.82 3.00
4.46 3.75 3.00
5.73 3.49 3.00
5.81 3.06 3.00
4.09 3.06 3.00
5.80 2.98 3.00
4.52 2.77 3.00
4.09 2.73 3.00
5.61 2.51 3.00
5.41 2.35 3.00
5.27 2.28 3.00
5.06 3.94 3.20
4.80 3.92 3.20
4.66 3.87 3.20
5.46 3.82 3.20
5.77 3.41 3.20
5.82 3.17 3.20
4.10 2.98 3.20
4.09 2.73 3.20
5.56 2.47 3.20
5.40 2.34 3.20
5.17 2.25 3.20
5.04 2.25 3.20
5.14 3.94 3.40
4.78 3.91 3.40
4.65 3.86 3.40
5.43 3.85 3.40
5.53 3.76 3.40
4.17 3.58 3.40
4.10 2.87 3.40
4.11 2.68 3.40
5.63 2.55 3.40
5.49 2.36 3.40
5.32 2.30 3.40
4.91 2.25 3.40
5.19 3.93 3.60
4.72 3.89 3.60
5.40 3.86 3.60
5.55 3.76 3.60
4.29 3.66 3.60
4.14 3.40 3.60
5.75 2.71 3.60
5.65 2.51 3.60
5.54 2.40 3.60
5.42 2.35 3.60
4.69 2.27 3.60
5.24 3.93 3.80
4.69 3.88 3.80
5.48 3.83 3.80
4.38 3.71 3.80
5.69 3.65 3.80
5.79 3.48 3.80
4.16 3.30 3.80
4.14 2.79 3.80
5.81 2.76 3.80
5.70 2.53 3.80
5.48 2.41 3.80
5.19 3.93 4.00
4.66 3.86 4.00
5.46 3.85 4.00
4.50 3.78 4.00
5.61 3.74 4.00
4.21 3.36 4.00
5.86 3.31 4.00
4.17 3.23 4.00
4.17 2.79 4.00
5.85 2.78 4.00
5.82 2.67 4.00
5.73 2.54 4.00
5.53 2.43 4.00
4.73 2.29 4.00
5.30 3.93 4.20
5.08 3.93 4.20
5.49 3.83 4.20
5.59 3.76 4.20
4.25 3.34 4.20
4.18 3.17 4.20
5.95 3.10 4.20
4.17 2.87 4.20
5.90 2.82 4.20
5.83 2.64 4.20
5.67 2.53 4.20
4.67 2.31 4.20
4.89 2.27 4.20
5.29 3.94 4.40
5.04 3.90 4.40
5.55 3.79 4.40
4.27 3.28 4.40
4.19 3.09 4.40
4.19 2.93 4.40
5.95 2.85 4.40
5.86 2.63 4.40
5.71 2.49 4.40
5.02 2.24 4.40
5.34 3.93 4.60
5.15 3.93 4.60
5.04 3.90 4.60
5.53 3.81 4.60
4.49 3.62 4.60
4.34 3.41 4.60
4.27 3.15 4.60
4.35 2.82 4.60
5.93 2.67 4.60
5.85 2.56 4.60
5.64 2.37 4.60
5.09 2.21 4.60
4.98 2.21 4.60
5.17 3.94 4.80
5.37 3.91 4.80
5.02 3.91 4.80
4.63 3.68 4.80
4.35 3.26 4.80
4.30 3.12 4.80
6.09 3.05 4.80
4.32 2.88 4.80
5.98 2.69 4.80
5.91 2.57 4.80
5.61 2.30 4.80
5.23 2.19 4.80
5.06 2.18 4.80
5.19 3.92 5.00
5.45 3.89 5.00
5.00 3.88 5.00
4.82 3.77 5.00
6.06 3.18 5.00
4.37 3.14 5.00
6.09 3.02 5.00
6.09 2.82 5.00
4.35 2.82 5.00
5.99 2.62 5.00
5.92 2.50 5.00
5.53 2.20 5.00
5.34 2.15 5.00
5.15 2.14 5.00
5.28 3.93 5.20
5.11 3.91 5.20
5.55 3.83 5.20
6.04 3.24 5.20
4.35 2.83 5.20
6.11 2.79 5.20
4.37 2.67 5.20
5.97 2.50 5.20
4.85 2.17 5.20
5.32 2.09 5.20
5.09 2.09 5.20
5.29 3.90 5.40
5.15 3.90 5.40
5.04 3.85 5.40
5.68 3.74 5.40
4.90 3.59 5.40
6.01 3.37 5.40
6.07 3.21 5.40
4.40 2.95 5.40
4.43 2.85 5.40
6.11 2.67 5.40
4.37 2.64 5.40
6.01 2.46 5.40
5.84 2.21 5.40
4.77 2.21 5.40
5.41 2.04 5.40
5.25 2.04 5.40
5.22 3.88 5.60
5.01 3.84 5.60
5.77 3.70 5.60
4.78 3.64 5.60
5.96 3.50 5.60
6.04 3.28 5.60
4.34 2.82 5.60
4.68 2.67 5.60
4.37 2.58 5.60
6.11 2.56 5.60
5.97 2.31 5.60
5.84 2.16 5.60
5.41 2.04 5.60
5.29 3.88 5.80
5.06 3.85 5.80
4.71 3.57 5.80
5.99 3.37 5.80
6.13 3.10 5.80
4.38 2.91 5.80
4.37 2.61 5.80
6.02 2.34 5.80
5.83 2.07 5.80
5.44 1.98 5.80
5.24 3.89 6.00
5.46 3.85 6.00
5.07 3.85 6.00
4.73 3.61 6.00
5.92 3.50 6.00
4.62 3.50 6.00
6.04 3.30 6.00
4.41 3.10 6.00
6.15 3.00 6.00
4.35 2.56 6.00
6.04 2.31 6.00
5.84 2.04 6.00
5.61 1.98 6.00
5.36 3.85 6.20
5.56 3.80 6.20
4.70 3.57 6.20
5.90 3.50 6.20
4.52 3.41 6.20
5.97 3.38 6.20
4.42 3.20 6.20
6.17 2.88 6.20
4.77 2.55 6.20
6.07 2.29 6.20
5.99 2.17 6.20
4.67 2.05 6.20
5.76 1.91 6.20
5.29 3.84 6.40
5.61 3.78 6.40
4.85 3.72 6.40
4.61 3.49 6.40
5.91 3.45 6.40
6.19 2.70 6.40
6.14 2.37 6.40
6.03 2.19 6.40
4.78 1.99 6.40
5.39 3.83 6.60
5.67 3.75 6.60
4.98 3.73 6.60
5.83 3.56 6.60
4.66 3.52 6.60
4.55 3.42 6.60
4.28 2.85 6.60
6.19 2.43 6.60
6.05 2.17 6.60
4.68 1.99 6.60
5.85 1.98 6.60
5.64 1.89 6.60
5.50 3.81 6.80
5.35 3.81 6.80
5.07 3.75 6.80
5.78 3.67 6.80
4.60 3.46 6.80
4.51 3.38 6.80
4.29 2.98 6.80
4.27 2.72 6.80
6.22 2.42 6.80
6.10 2.21 6.80
5.98 2.05 6.80
4.94 1.85 6.80
5.44 1.83 6.80
5.49 3.80 7.00
5.32 3.77 7.00
5.12 3.75 7.00
4.57 3.42 7.00
4.32 3.06 7.00
4.28 2.64 7.00
6.23 2.56 7.00
6.21 2.35 7.00
6.09 2.17 7.00
6.01 2.08 7.00
4.78 1.93 7.00
5.11 1.80 7.00
5.30 1.78 7.00
5.48 3.79 7.20
5.77 3.66 7.20
5.94 3.49 7.20
4.50 3.33 7.20
4.36 3.15 7.20
6.24 2.69 7.20
4.30 2.66 7.20
6.22 2.34 7.20
6.02 2.07 7.20
5.31 3.78 7.40
5.65 3.73 7.40
5.42 3.73 7.40
5.14 3.72 7.40
6.07 3.35 7.40
4.29 2.72 7.40
6.28 2.68 7.40
4.31 2.55 7.40
6.23 2.31 7.40
6.11 2.14 7.40
4.90 1.85 7.40
5.50 3.77 7.60
5.29 3.77 7.60
5.61 3.72 7.60
5.03 3.68 7.60
6.19 3.19 7.60
6.28 2.80 7.60
4.31 2.70 7.60
6.29 2.60 7.60
4.34 2.49 7.60
4.43 2.36 7.60
6.23 2.29 7.60
6.15 2.17 7.60
4.90 1.83 7.60
5.59 1.78 7.60
5.40 1.73 7.60
5.32 3.78 7.80
5.58 3.71 7.80
4.99 3.66 7.80
4.40 3.14 7.80
4.32 2.94 7.80
6.29 2.93 7.80
4.30 2.64 7.80
6.30 2.63 7.80
5.70 1.81 7.80
5.32 1.72 7.80
5.31 3.78 8.00
5.50 3.74 8.00
5.05 3.72 8.00
4.89 3.64 8.00
4.53 3.33 8.00
4.31 2.83 8.00
6.30 2.69 8.00
4.30 2.59 8.00
6.29 2.49 8.00
6.21 2.30 8.00
5.80 1.85 8.00
4.93 1.80 8.00
5.21 1.72 8.00
5.40 3.76 8.20
5.05 3.71 8.20
4.82 3.61 8.20
4.64 3.47 8.20
6.15 3.39 8.20
6.21 3.26 8.20
6.31 2.74 8.20
4.31 2.73 8.20
6.30 2.56 8.20
4.31 2.56 8.20
6.17 2.22 8.20
5.83 1.86 8.20
5.69 1.82 8.20
5.10 1.72 8.20
5.36 3.76 8.40
5.18 3.74 8.40
4.99 3.68 8.40
6.03 3.48 8.40
6.26 3.17 8.40
6.33 2.76 8.40
4.34 2.67 8.40
6.33 2.63 8.40
4.36 2.32 8.40
6.15 2.16 8.40
5.89 1.90 8.40
5.72 1.83 8.40
5.43 3.74 8.60
5.08 3.71 8.60
4.93 3.65 8.60
5.97 3.50 8.60
4.55 3.40 8.60
6.31 3.05 8.60
6.34 2.64 8.60
4.35 2.57 8.60
4.59 2.53 8.60
6.13 2.07 8.60
6.01 1.97 8.60
5.79 1.83 8.60
5.43 1.71 8.60
5.51 3.73 8.80
5.07 3.69 8.80
4.95 3.65 8.80
5.91 3.57 8.80
6.02 3.50 8.80
4.62 3.46 8.80
4.49 3.26 8.80
6.32 3.02 8.80
6.34 2.68 8.80
4.36 2.34 8.80
5.85 1.86 8.80
5.61 1.77 8.80
5.23 1.76 8.80
5.60 3.70 9.00
5.04 3.68 9.00
5.84 3.58 9.00
4.66 3.48 9.00
6.01 3.46 9.00
4.45 3.13 9.00
6.34 2.98 9.00
6.37 2.81 9.00
6.22 2.21 9.00
6.13 2.05 9.00
5.89 1.86 9.00
5.72 1.80 9.00
4.98 3.64 9.20
5.92 3.52 9.20
4.77 3.52 9.20
4.47 3.17 9.20
4.43 3.05 9.20
4.39 2.46 9.20
6.25 2.28 9.20
6.15 2.05 9.20
5.89 1.85 9.20
5.36 3.70 9.40
5.54 3.68 9.40
4.82 3.67 9.40
4.87 3.60 9.40
5.88 3.53 9.40
6.09 3.36 9.40
6.22 3.09 9.40
4.40 2.95 9.40
4.34 2.58 9.40
6.27 2.33 9.40
6.17 2.04 9.40
5.90 1.90 9.40
5.52 3.71 9.60
5.26 3.68 9.60
5.83 3.56 9.60
5.97 3.46 9.60
4.44 3.07 9.60
6.23 3.02 9.60
4.34 2.85 9.60
4.32 2.66 9.60
6.29 2.37 9.60
6.24 2.22 9.60
6.19 2.05 9.60
6.01 1.95 9.60
4.99 1.77 9.60
5.56 3.68 9.80
5.26 3.64 9.80
5.86 3.50 9.80
4.62 3.37 9.80
4.51 3.25 9.80
4.40 2.96 9.80
6.25 2.87 9.80
6.31 2.40 9.80
6.23 2.18 9.80
6.14 1.98 9.80
5.03 1.74 9.80
5.57 3.68 10.00
5.36 3.67 10.00
5.20 3.66 10.00
4.68 3.54 10.00
5.79 3.53 10.00
4.38 2.90 10.00
4.33 2.53 10.00
6.33 2.51 10.00
4.38 2.38 10.00
6.26 2.23 10.00
6.15 2.05 10.00
6.02 1.93 10.00
5.36 3.68 10.20
5.60 3.65 10.20
5.17 3.65 10.20
4.89 3.51 10.20
4.42 2.92 10.20
4.33 2.49 10.20
6.28 2.24 10.20
4.45 2.24 10.20
6.17 2.08 10.20
5.93 1.85 10.20
5.15 1.70 10.20
5.34 1.68 10.20
5.35 3.65 10.40
5.65 3.59 10.40
5.05 3.56 10.40
4.39 2.88 10.40
4.31 2.51 10.40
6.35 2.50 10.40
6.29 2.26 10.40
4.44 2.21 10.40
6.20 2.11 10.40
5.78 1.75 10.40
5.44 1.67 10.40
5.14 1.67 10.40
5.28 3.64 10.60
5.49 3.62 10.60
5.01 3.55 10.60
5.79 3.48 10.60
4.35 2.77 10.60
6.25 2.72 10.60
4.31 2.54 10.60
6.32 2.42 10.60
4.38 2.33 10.60
4.46 2.20 10.60
6.26 2.18 10.60
6.18 2.10 10.60
5.69 1.68 10.60
5.33 1.67 10.60
5.16 1.63 10.60
5.28 3.64 10.80
5.44 3.63 10.80
5.91 3.37 10.80
6.26 2.82 10.80
6.29 2.32 10.80
4.36 2.32 10.80
4.46 2.17 10.80
6.26 2.07 10.80
6.01 1.83 10.80
5.47 1.66 10.80
5.37 3.62 11.00
5.09 3.60 11.00
4.73 3.50 11.00
6.02 3.29 11.00
6.18 3.07 11.00
6.22 2.92 11.00
6.27 2.77 11.00
4.35 2.62 11.00
6.29 2.28 11.00
4.37 2.28 11.00
6.24 2.16 11.00
4.44 2.14 11.00
4.50 2.09 11.00
6.29 2.02 11.00
6.08 1.90 11.00
5.94 1.79 11.00
5.53 1.64 11.00
5.30 1.64 11.00
5.38 3.59 11.20
4.62 3.45 11.20
6.21 3.02 11.20
6.26 2.82 11.20
4.37 2.78 11.20
4.33 2.45 11.20
6.29 2.28 11.20
4.38 2.24 11.20
6.31 2.08 11.20
4.51 2.06 11.20
6.14 1.96 11.20
5.95 1.77 11.20
5.47 1.66 11.20
5.30 3.59 11.40
5.16 3.57 11.40
5.77 3.50 11.40
4.78 3.41 11.40
4.59 3.26 11.40
6.18 3.05 11.40
4.44 3.00 11.40
6.21 2.92 11.40
6.29 2.62 11.40
4.36 2.35 11.40
4.41 2.20 11.40
6.14 1.96 11.40
5.91 1.72 11.40
5.60 1.67 11.40
5.62 3.54 11.60
5.85 3.43 11.60
4.72 3.39 11.60
4.46 3.16 11.60
6.17 3.04 11.60
6.25 2.83 11.60
6.28 2.50 11.60
4.38 2.29 11.60
4.64 2.04 11.60
4.49 1.99 11.60
6.17 1.96 11.60
6.09 1.86 11.60
5.92 1.68 11.60
5.74 1.66 11.60
5.53 3.54 11.80
5.89 3.41 11.80
4.61 3.37 11.80
6.16 3.04 11.80
6.22 2.89 11.80
6.28 2.33 11.80
4.36 2.28 11.80
4.51 1.98 11.80
6.16 1.94 11.80
6.07 1.83 11.80
5.50 3.52 12.00
5.12 3.49 12.00
5.63 3.48 12.00
4.67 3.43 12.00
5.98 3.34 12.00
4.62 3.27 12.00
6.12 3.11 12.00
6.17 2.99 12.00
4.37 2.92 12.00
4.34 2.77 12.00
4.37 2.22 12.00
6.23 2.17 12.00
4.47 2.04 12.00
6.16 1.97 12.00
6.07 1.83 12.00
5.90 1.70 12.00
5.77 1.65 12.00
5.48 3.52 12.20
5.17 3.51 12.20
5.67 3.46 12.20
4.64 3.32 12.20
6.05 3.24 12.20
4.36 2.97 12.20
4.30 2.67 12.20
6.22 1.83 12.20
5.97 1.75 12.20
5.41 3.50 12.40
5.25 3.50 12.40
5.64 3.46 12.40
4.65 3.32 12.40
4.39 3.04 12.40
4.28 2.58 12.40
6.25 2.15 12.40
6.20 1.97 12.40
6.13 1.85 12.40
6.01 1.77 12.40
5.58 3.44 12.60
5.93 3.26 12.60
4.56 3.22 12.60
6.01 3.14 12.60
4.44 3.12 12.60
4.29 2.66 12.60
6.29 2.31 12.60
6.25 2.04 12.60
4.42 2.01 12.60
6.15 1.89 12.60
6.06 1.81 12.60
5.12 3.57 12.80
5.33 3.50 12.80
5.57 3.47 12.80
5.77 3.37 12.80
6.08 3.06 12.80
4.26 2.65 12.80
4.84 2.48 12.80
4.27 2.47 12.80
6.26 2.29 12.80
4.37 2.08 12.80
6.21 1.97 12.80
4.82 1.90 12.80
6.04 1.80 12.80
5.04 3.60 13.00
5.34 3.50 13.00
5.58 3.44 13.00
5.69 3.37 13.00
6.10 3.00 13.00
4.22 2.63 13.00
4.21 2.42 13.00
6.29 2.35 13.00
6.29 2.19 13.00
4.28 2.16 13.00
6.21 1.94 13.00
4.74 1.86 13.00
6.08 1.82 13.00
5.36 3.49 13.20
5.09 3.48 13.20
4.96 3.45 13.20
5.61 3.37 13.20
4.25 2.85 13.20
6.17 2.82 13.20
4.18 2.57 13.20
6.31 2.40 13.20
4.19 2.25 13.20
6.29 2.19 13.20
6.20 1.95 13.20
6.13 1.85 13.20
4.79 1.85 13.20
5.40 1.43 13.20
5.33 3.51 13.40
5.11 3.50 13.40
4.86 3.46 13.40
5.50 3.43 13.40
4.57 3.28 13.40
4.18 2.72 13.40
6.30 2.54 13.40
4.16 2.53 13.40
6.28 2.19 13.40
4.17 2.11 13.40
6.18 1.94 13.40
5.49 1.43 13.40
5.09 3.51 13.60
4.79 3.47 13.60
4.67 3.41 13.60
4.16 2.61 13.60
6.28 2.22 13.60
4.16 2.15 13.60
6.24 2.05 13.60
4.28 1.92 13.60
6.10 1.79 13.60
4.78 1.69 13.60
5.56 1.41 13.60
5.27 3.52 13.80
5.06 3.51 13.80
5.50 3.46 13.80
6.27 2.72 13.80
4.12 2.60 13.80
6.40 2.29 13.80
6.28 2.21 13.80
4.10 2.18 13.80
6.25 2.07 13.80
4.26 1.86 13.80
5.99 1.65 13.80
4.83 1.64 13.80
5.71 1.44 13.80
5.50 1.36 13.80
5.15 3.54 14.00
5.01 3.53 14.00
4.72 3.50 14.00
5.61 3.43 14.00
4.60 3.43 14.00
6.07 3.03 14.00
6.13 2.88 14.00
6.30 2.58 14.00
4.09 2.50 14.00
4.06 2.24 14.00
6.29 2.23 14.00
6.26 2.12 14.00
4.26 1.83 14.00
5.93 1.55 14.00
5.66 1.38 14.00
5.09 3.54 14.20
4.74 3.50 14.20
5.73 3.37 14.20
4.48 3.34 14.20
6.06 3.02 14.20
6.31 2.50 14.20
4.03 2.26 14.20
6.27 2.14 14.20
4.20 1.87 14.20
4.32 1.71 14.20
5.14 3.54 14.40
4.81 3.51 14.40
5.81 3.35 14.40
4.39 3.26 14.40
5.97 3.18 14.40
6.15 3.02 14.40
6.15 2.91 14.40
6.31 2.42 14.40
3.98 2.24 14.40
6.29 2.15 14.40
4.17 1.88 14.40
4.34 1.63 14.40
5.09 3.54 14.60
4.89 3.52 14.60
5.50 3.49 14.60
4.39 3.28 14.60
4.30 3.16 14.60
6.03 3.08 14.60
6.11 2.96 14.60
4.06 2.48 14.60
6.29 2.31 14.60
4.05 2.16 14.60
4.16 1.89 14.60
6.03 1.56 14.60
4.42 1.50 14.60
5.88 1.41 14.60
5.35 3.53 14.80
5.57 3.48 14.80
4.34 3.26 14.80
5.98 3.15 14.80
4.14 3.06 14.80
4.04 2.78 14.80
4.06 2.07 14.80
4.14 1.89 14.80
6.12 1.71 14.80
5.89 1.39 14.80
5.29 3.55 15.00
5.60 3.47 15.00
4.26 3.22 15.00
5.94 3.18 15.00
6.04 3.05 15.00
4.04 2.91 15.00
6.17 2.86 15.00
6.23 2.60 15.00
4.05 2.03 15.00
4.11 1.89 15.00
6.10 1.70 15.00
4.40 1.45 15.00
5.27 3.54 15.20
4.60 3.48 15.20
5.66 3.45 15.20
4.37 3.34 15.20
4.19 3.15 15.20
5.94 3.12 15.20
6.07 3.01 15.20
6.23 2.48 15.20
4.03 2.04 15.20
6.16 1.80 15.20
6.08 1.65 15.20
4.31 1.55 15.20
4.51 1.40 15.20
5.19 3.58 15.40
5.37 3.54 15.40
4.79 3.54 15.40
5.69 3.45 15.40
5.83 3.29 15.40
4.24 3.21 15.40
4.15 3.11 15.40
6.20 2.16 15.40
4.04 1.98 15.40
6.14 1.84 15.40
4.18 1.70 15.40
5.98 1.60 15.40
4.64 1.36 15.40
5.13 3.61 15.60
4.90 3.59 15.60
5.39 3.56 15.60
4.17 3.17 15.60
3.90 2.61 15.60
3.89 2.37 15.60
6.24 2.00 15.60
4.03 1.84 15.60
6.01 1.63 15.60
5.07 3.62 15.80
5.39 3.55 15.80
4.12 3.10 15.80
3.92 2.64 15.80
3.95 2.23 15.80
5.95 1.59 15.80
4.68 1.31 15.80
4.79 1.28 15.80
4.92 3.64 16.00
5.37 3.57 16.00
5.62 3.46 16.00
5.85 3.24 16.00
4.03 3.00 16.00
3.93 2.81 16.00
3.91 2.23 16.00
6.17 2.13 16.00
6.16 1.94 16.00
5.96 1.62 16.00
5.83 1.49 16.00
4.68 1.32 16.00
4.87 1.25 16.00
4.99 3.68 16.20
4.76 3.62 16.20
5.36 3.61 16.20
5.50 3.56 16.20
5.94 3.15 16.20
6.13 2.31 16.20
3.93 2.26 16.20
3.98 2.11 16.20
6.08 1.87 16.20
5.85 1.54 16.20
4.56 1.41 16.20
5.05 3.69 16.40
4.64 3.58 16.40
5.45 3.57 16.40
6.19 2.35 16.40
3.90 2.30 16.40
3.95 2.08 16.40
6.02 1.82 16.40
4.31 1.55 16.40
5.79 1.52 16.40
4.68 1.31 16.40
5.08 3.70 16.60
4.67 3.62 16.60
5.36 3.61 16.60
4.54 3.55 16.60
6.06 2.96 16.60
3.93 2.84 16.60
6.15 2.61 16.60
6.18 2.36 16.60
3.88 2.35 16.60
3.96 2.02 16.60
6.01 1.81 16.60
4.09 1.81 16.60
5.86 1.62 16.60
4.87 1.31 16.60
5.19 3.69 16.80
4.66 3.63 16.80
4.43 3.53 16.80
5.78 3.41 16.80
4.05 3.13 16.80
3.87 2.58 16.80
6.13 2.49 16.80
3.89 2.30 16.80
4.62 3.64 17.00
5.65 3.50 17.00
4.29 3.49 17.00
4.17 3.34 17.00
5.85 3.33 17.00
6.14 2.68 17.00
3.85 2.50 17.00
3.86 2.33 17.00
6.16 2.28 17.00
3.97 1.89 17.00
5.00 3.70 17.20
4.78 3.68 17.20
4.53 3.60 17.20
5.57 3.53 17.20
5.91 3.25 17.20
6.13 2.77 17.20
6.16 2.54 17.20
3.87 2.45 17.20
6.11 2.14 17.20
3.91 1.97 17.20
4.04 1.80 17.20
5.08 3.70 17.40
4.66 3.67 17.40
4.49 3.59 17.40
5.55 3.55 17.40
5.64 3.49 17.40
5.98 3.20 17.40
6.08 2.73 17.40
3.85 2.44 17.40
3.90 2.04 17.40
6.00 1.95 17.40
4.15 1.71 17.40
5.19 3.70 17.60
4.59 3.67 17.60
4.48 3.62 17.60
5.51 3.59 17.60
5.66 3.48 17.60
6.01 3.18 17.60
3.95 3.17 17.60
6.05 3.06 17.60
6.07 2.87 17.60
3.86 2.31 17.60
3.89 2.08 17.60
5.93 1.80 17.60
4.20 1.66 17.60
5.74 1.65 17.60
5.26 3.68 17.80
4.54 3.66 17.80
5.45 3.62 17.80
5.66 3.47 17.80
4.04 3.31 17.80
3.89 3.03 17.80
6.06 3.02 17.80
3.83 2.18 17.80
4.12 1.71 17.80
4.26 1.59 17.80
4.46 3.64 18.00
5.63 3.50 18.00
4.16 3.44 18.00
5.95 3.12 18.00
3.88 2.91 18.00
4.16 1.74 18.00
5.86 1.69 18.00
4.40 1.50 18.00
4.79 1.34 18.00
5.13 3.75 18.20
5.29 3.72 18.20
4.26 3.56 18.20
5.63 3.50 18.20
5.83 3.31 18.20
3.89 2.99 18.20
3.87 2.85 18.20
3.89 2.19 18.20
3.97 1.98 18.20
5.99 1.96 18.20
4.17 1.73 18.20
5.84 1.68 18.20
5.02 3.77 18.40
5.31 3.72 18.40
5.63 3.50 18.40
5.74 3.39 18.40
3.88 3.01 18.40
6.01 2.96 18.40
3.83 2.83 18.40
3.85 2.27 18.40
6.05 2.06 18.40
4.04 1.88 18.40
4.18 1.70 18.40
5.84 1.68 18.40
4.95 3.77 18.60
5.36 3.70 18.60
5.67 3.44 18.60
3.89 2.96 18.60
6.09 2.76 18.60
3.83 2.74 18.60
3.85 2.44 18.60
6.10 2.17 18.60
6.03 1.97 18.60
4.11 1.82 18.60
4.18 1.74 18.60
5.82 1.65 18.60
4.98 1.32 18.60
4.87 3.78 18.80
5.05 3.77 18.80
5.41 3.69 18.80
5.56 3.54 18.80
4.16 3.43 18.80
3.97 3.19 18.80
3.88 2.88 18.80
6.14 2.51 18.80
6.15 2.32 18.80
6.03 1.98 18.80
4.16 1.80 18.80
4.72 1.42 18.80
5.00 1.39 18.80
4.76 3.77 19.00
5.08 3.76 19.00
5.48 3.65 19.00
4.35 3.58 19.00
3.87 2.83 19.00
6.30 2.34 19.00
3.85 2.29 19.00
6.08 2.04 19.00
4.22 1.73 19.00
5.84 1.72 19.00
4.58 1.49 19.00
5.02 1.40 19.00
5.06 3.76 19.20
4.58 3.74 19.20
5.42 3.66 19.20
3.92 2.94 19.20
3.88 2.79 19.20
3.87 2.36 19.20
3.96 2.18 19.20
6.12 2.08 19.20
6.00 1.87 19.20
4.34 1.66 19.20
4.48 1.54 19.20
5.05 3.75 19.40
5.25 3.72 19.40
5.60 3.55 19.40
3.94 2.80 19.40
6.17 2.67 19.40
6.18 2.46 19.40
3.89 2.39 19.40
6.08 2.06 19.40
4.06 2.05 19.40
6.01 1.92 19.40
5.09 3.76 19.60
4.69 3.76 19.60
5.21 3.74 19.60
4.53 3.67 19.60
5.76 3.49 19.60
6.08 3.06 19.60
6.09 2.93 19.60
3.91 2.69 19.60
3.89 2.46 19.60
6.19 2.44 19.60
6.09 2.03 19.60
4.07 2.03 19.60
4.75 3.76 19.80
5.17 3.75 19.80
4.43 3.58 19.80
5.87 3.41 19.80
6.05 3.18 19.80
6.10 3.02 19.80
6.15 2.90 19.80
3.91 2.55 19.80
6.20 2.35 19.80
4.01 2.10 19.80
6.08 1.99 19.80
4.12 1.95 19.80
4.92 1.38 19.80
4.87 3.76 20.00
5.21 3.73 20.00
4.36 3.50 20.00
6.13 3.04 20.00
6.14 2.94 20.00
6.19 2.27 20.00
4.02 2.13 20.00
6.11 2.04 20.00
4.17 1.88 20.00
4.64 1.55 20.00
5.17 1.39 20.00
5.07 1.38 20.00
5.16 3.75 20.20
4.99 3.75 20.20
5.53 3.64 20.20
5.67 3.58 20.20
4.38 3.51 20.20
4.25 3.38 20.20
6.11 3.17 20.20
6.13 3.02 20.20
3.95 2.69 20.20
3.95 2.35 20.20
4.02 2.10 20.20
4.29 1.74 20.20
5.48 3.71 20.40
5.72 3.57 20.40
4.33 3.49 20.40
4.16 3.29 20.40
6.09 3.22 20.40
6.17 3.05 20.40
4.00 2.96 20.40
6.28 2.80 20.40
3.93 2.31 20.40
3.98 2.11 20.40
5.42 3.69 20.60
4.56 3.64 20.60
5.79 3.51 20.60
4.28 3.42 20.60
6.08 3.19 20.60
4.04 3.14 20.60
6.17 3.00 20.60
6.27 2.63 20.60
3.94 2.29 20.60
3.97 2.15 20.60
6.01 1.81 20.60
4.18 1.77 20.60
5.38 3.73 20.80
4.74 3.70 20.80
5.52 3.68 20.80
5.85 3.54 20.80
4.34 3.47 20.80
4.18 3.33 20.80
6.02 3.31 20.80
6.24 2.39 20.80
3.93 2.30 20.80
4.10 1.90 20.80
6.06 1.89 20.80
5.93 1.73 20.80
4.34 1.67 20.80
4.95 3.77 21.00
5.36 3.76 21.00
5.55 3.70 21.00
5.95 3.48 21.00
4.25 3.40 21.00
4.15 3.30 21.00
3.91 2.71 21.00
3.95 2.25 21.00
6.22 2.21 21.00
6.17 2.04 21.00
3.96 1.93 21.00
5.94 1.76 21.00
4.49 1.62 21.00
5.11 3.80 21.20
5.27 3.79 21.20
5.54 3.72 21.20
4.20 3.33 21.20
3.91 2.84 21.20
3.88 2.60 21.20
3.94 2.20 21.20
4.01 2.04 21.20
5.94 1.75 21.20
4.50 1.60 21.20
5.50 3.77 21.40
5.79 3.61 21.40
5.95 3.45 21.40
4.12 3.25 21.40
3.94 2.95 21.40
3.91 2.50 21.40
5.91 1.77 21.40
4.48 1.64 21.40
5.68 1.60 21.40
4.64 1.55 21.40
5.18 3.91 21.60
4.94 3.89 21.60
5.53 3.78 21.60
5.71 3.69 21.60
6.03 3.34 21.60
3.94 3.11 21.60
3.90 2.56 21.60
6.24 2.35 21.60
6.17 2.08 21.60
5.89 1.78 21.60
5.77 1.68 21.60
4.53 1.61 21.60
4.79 1.50 21.60
4.94 1.49 21.60
5.19 3.93 21.80
4.80 3.87 21.80
5.59 3.76 21.80
6.13 3.18 21.80
3.86 2.66 21.80
6.26 2.52 21.80
3.87 2.47 21.80
6.17 2.06 21.80
4.20 1.84 21.80
5.85 1.73 21.80
4.39 1.68 21.80
4.66 1.54 21.80
5.27 3.93 22.00
4.73 3.87 22.00
5.59 3.80 22.00
6.20 3.05 22.00
3.87 2.69 22.00
6.25 2.67 22.00
6.26 2.50 22.00
3.89 2.45 22.00
4.05 2.06 22.00
6.10 1.99 22.00
5.84 1.75 22.00
4.50 1.63 22.00
4.70 1.53 22.00
5.31 3.95 22.20
4.76 3.94 22.20
5.49 3.89 22.20
4.54 3.84 22.20
4.07 3.40 22.20
3.88 2.99 22.20
6.24 2.94 22.20
3.86 2.67 22.20
6.23 2.56 22.20
3.92 2.28 22.20
6.03 1.95 22.20
5.92 1.84 22.20
4.70 1.57 22.20
4.71 3.93 22.40
4.40 3.83 22.40
4.23 3.65 22.40
5.88 3.63 22.40
5.99 3.48 22.40
3.85 2.90 22.40
6.22 2.71 22.40
3.84 2.69 22.40
4.74 1.55 22.40
5.01 4.03 22.60
4.62 3.90 22.60
5.79 3.73 22.60
6.01 3.43 22.60
3.86 2.83 22.60
6.20 2.83 22.60
3.85 2.72 22.60
6.21 2.41 22.60
3.87 2.32 22.60
3.96 2.17 22.60
5.23 4.01 22.80
4.75 3.98 22.80
4.57 3.89 22.80
5.79 3.73 22.80
6.05 3.35 22.80
6.16 2.90 22.80
3.85 2.77 22.80
6.16 2.76 22.80
3.86 2.38 22.80
6.06 2.17 22.80
4.08 2.04 22.80
5.67 1.70 22.80
5.31 4.01 23.00
4.57 3.92 23.00
5.71 3.83 23.00
5.83 3.71 23.00
4.08 3.49 23.00
6.07 3.31 23.00
3.98 3.27 23.00
6.09 3.12 23.00
6.12 2.96 23.00
3.83 2.71 23.00
3.83 2.48 23.00
5.98 2.03 23.00
4.10 2.01 23.00
5.77 1.77 23.00
5.41 3.99 23.20
4.56 3.92 23.20
5.63 3.88 23.20
5.80 3.72 23.20
4.13 3.57 23.20
3.96 3.17 23.20
3.83 2.54 23.20
4.07 2.03 23.20
4.17 1.91 23.20
5.86 1.85 23.20
4.40 3.85 23.40
5.78 3.72 23.40
4.21 3.71 23.40
4.17 3.66 23.40
5.99 3.39 23.40
3.97 3.11 23.40
4.08 2.05 23.40
4.23 1.85 23.40
5.52 1.66 23.40
4.82 1.59 23.40
5.43 4.08 23.60
5.75 3.77 23.60
5.89 3.58 23.60
6.01 3.23 23.60
4.00 3.17 23.60
3.96 3.05 23.60
6.15 2.60 23.60
3.94 2.44 23.60
5.96 2.20 23.60
4.01 2.18 23.60
4.14 2.01 23.60
5.87 1.98 23.60
5.51 1.70 23.60
4.40 1.70 23.60
5.20 4.12 23.80
5.49 4.03 23.80
5.74 3.76 23.80
5.83 3.64 23.80
4.02 3.20 23.80
6.01 3.09 23.80
3.94 3.01 23.80
6.12 2.71 23.80
3.92 2.60 23.80
6.09 2.50 23.80
5.97 2.36 23.80
4.07 2.13 23.80
4.18 1.99 23.80
5.86 1.97 23.80
5.03 4.12 24.00
5.50 3.98 24.00
5.66 3.88 24.00
5.77 3.67 24.00
4.20 3.60 24.00
4.13 3.46 24.00
4.01 3.16 24.00
3.93 2.94 24.00
3.92 2.78 24.00
6.03 2.46 24.00
4.03 2.37 24.00
5.92 2.33 24.00
4.14 2.11 24.00
4.21 2.00 24.00
5.78 1.93 24.00
4.87 4.13 24.20
5.10 4.11 24.20
5.54 3.90 24.20
4.31 3.83 24.20
4.07 3.75 24.20
5.71 3.73 24.20
4.04 3.30 24.20
6.01 2.91 24.20
3.91 2.90 24.20
5.95 2.71 24.20
5.90 2.35 24.20
4.18 2.12 24.20
5.69 1.91 24.20
5.54 1.83 24.20
4.64 1.72 24.20
4.71 4.13 24.40
5.11 4.09 24.40
4.43 4.01 24.40
5.59 3.82 24.40
4.00 3.29 24.40
3.94 3.17 24.40
3.85 2.99 24.40
3.92 2.81 24.40
6.02 2.58 24.40
5.93 2.40 24.40
4.24 2.09 24.40
4.56 1.80 24.40
5.14 4.06 24.60
4.17 3.72 24.60
3.95 3.26 24.60
6.10 3.08 24.60
3.83 2.98 24.60
3.93 2.74 24.60
5.94 2.45 24.60
5.83 2.17 24.60
4.30 2.04 24.60
5.73 2.03 24.60
4.47 1.90 24.60
5.13 4.02 24.80
5.40 3.91 24.80
5.66 3.80 24.80
4.13 3.70 24.80
6.04 3.27 24.80
3.89 3.20 24.80
6.10 2.99 24.80
3.82 2.99 24.80
3.92 2.72 24.80
5.93 2.50 24.80
5.87 2.33 24.80
5.58 1.99 24.80
5.50 1.91 24.80
4.62 4.16 25.00
4.45 4.12 25.00
5.17 4.00 25.00
3.88 4.00 25.00
5.32 3.96 25.00
5.68 3.80 25.00
4.03 3.71 25.00
6.01 3.35 25.00
6.21 3.13 25.00
3.80 3.08 25.00
6.05 2.93 25.00
3.83 2.79 25.00
3.92 2.65 25.00
5.91 2.45 25.00
4.67 4.13 25.20
4.27 4.03 25.20
5.24 4.00 25.20
5.73 3.77 25.20
3.92 3.59 25.20
5.96 3.44 25.20
6.00 3.29 25.20
6.04 2.86 25.20
3.77 2.83 25.20
3.93 2.62 25.20
5.91 2.46 25.20
5.69 2.25 25.20
4.51 2.18 25.20
4.72 2.03 25.20
4.86 4.10 25.40
5.20 4.03 25.40
4.15 3.99 25.40
5.78 3.74 25.40
5.89 3.58 25.40
3.76 3.55 25.40
5.94 3.36 25.40
3.68 3.32 25.40
3.65 3.05 25.40
3.73 2.80 25.40
5.99 2.78 25.40
5.92 2.53 25.40
4.02 2.49 25.40
5.52 2.00 25.40
5.02 4.11 25.60
4.12 4.03 25.60
3.95 3.91 25.60
3.68 3.51 25.60
5.91 3.48 25.60
3.61 2.95 25.60
3.67 2.77 25.60
3.83 2.57 25.60
4.31 2.18 25.60
5.67 2.15 25.60
5.50 2.00 25.60
4.63 4.27 25.80
5.34 4.09 25.80
4.06 4.02 25.80
5.51 3.98 25.80
3.84 3.86 25.80
3.70 3.68 25.80
5.86 3.56 25.80
5.95 3.33 25.80
5.99 3.05 25.80
3.57 2.93 25.80
3.62 2.82 25.80
3.75 2.60 25.80
3.90 2.47 25.80
5.80 2.31 25.80
5.51 2.00 25.80
4.20 4.17 26.00
5.17 4.14 26.00
5.50 3.98 26.00
3.89 3.94 26.00
5.80 3.62 26.00
5.84 3.49 26.00
5.98 3.01 26.00
3.53 2.93 26.00
3.68 2.63 26.00
3.96 2.40 26.00
5.67 2.23 26.00
4.36 4.20 26.20
5.14 4.17 26.20
3.90 4.00 26.20
5.57 3.94 26.20
3.75 3.88 26.20
5.74 3.62 26.20
3.44 3.31 26.20
3.50 2.83 26.20
5.91 2.80 26.20
3.59 2.64 26.20
5.73 2.36 26.20
4.02 2.29 26.20
5.55 2.19 26.20
4.48 4.24 26.40
5.01 4.20 26.40
5.17 4.14 26.40
3.80 3.95 26.40
5.58 3.94 26.40
3.68 3.86 26.40
5.68 3.74 26.40
3.42 3.42 26.40
3.38 3.18 26.40
3.49 2.72 26.40
5.85 2.62 26.40
5.79 2.48 26.40
3.94 2.27 26.40
5.51 2.21 26.40
4.09 2.18 26.40
4.64 4.26 26.60
4.88 4.24 26.60
5.15 4.15 26.60
3.73 3.90 26.60
3.43 3.56 26.60
3.37 3.12 26.60
3.96 2.24 26.60
5.48 2.23 26.60
4.16 2.11 26.60
5.08 4.18 26.80
5.35 4.02 26.80
5.49 3.86 26.80
3.51 3.78 26.80
3.38 3.63 26.80
3.34 3.10 26.80
5.71 2.65 26.80
5.65 2.50 26.80
3.70 2.34 26.80
5.38 2.24 26.80
4.04 2.18 26.80
5.20 2.17 26.80
4.53 4.31 27.00
4.99 4.20 27.00
5.21 4.11 27.00
5.51 3.78 27.00
3.30 3.25 27.00
3.30 3.06 27.00
5.70 2.87 27.00
5.61 2.53 27.00
3.56 2.50 27.00
5.30 2.25 27.00
3.89 2.21 27.00
4.11 2.13 27.00
4.66 4.32 27.20
4.35 4.30 27.20
5.04 4.19 27.20
5.17 4.14 27.20
5.61 3.55 27.20
3.28 3.21 27.20
5.69 3.12 27.20
3.28 2.95 27.20
5.70 2.93 27.20
3.43 2.62 27.20
5.51 2.49 27.20
5.28 2.28 27.20
4.00 2.15 27.20
4.16 2.08 27.20
4.66 4.32 27.40
4.13 4.24 27.40
5.07 4.17 27.40
3.37 3.70 27.40
3.29 3.54 27.40
5.69 3.34 27.40
3.25 3.21 27.40
5.65 3.04 27.40
5.67 2.94 27.40
3.28 2.84 27.40
5.44 2.50 27.40
5.31 2.40 27.40
4.08 2.16 27.40
4.70 4.32 27.60
4.16 4.30 27.60
3.98 4.26 27.60
4.94 4.25 27.60
3.48 3.89 27.60
3.24 3.42 27.60
3.22 3.22 27.60
5.64 3.17 27.60
5.65 3.01 27.60
3.26 2.81 27.60
4.21 2.08 27.60
4.80 4.31 27.80
4.14 4.31 27.80
3.85 4.25 27.80
3.58 4.06 27.80
5.28 4.05 27.80
5.40 3.89 27.80
3.22 3.40 27.80
5.62 3.26 27.80
3.21 3.26 27.80
5.60 3.11 27.80
5.60 2.94 27.80
3.22 2.91 27.80
5.50 2.75 27.80
3.32 2.73 27.80
3.85 2.58 27.80
3.90 2.51 27.80
4.87 2.42 27.80
4.28 2.04 27.80
4.44 1.99 27.80
4.08 4.32 28.00
5.21 4.09 28.00
5.46 3.83 28.00
3.21 3.38 28.00
5.56 3.26 28.00
3.20 2.95 28.00
3.43 2.62 28.00
5.34 2.59 28.00
3.80 2.59 28.00
4.24 4.35 28.20
4.52 4.34 28.20
3.97 4.29 28.20
5.17 4.14 28.20
5.53 3.74 28.20
5.58 3.35 28.20
3.17 3.27 28.20
3.18 3.00 28.20
3.42 2.57 28.20
5.17 2.44 28.20
5.06 2.33 28.20
4.16 4.36 28.40
4.60 4.34 28.40
3.96 4.30 28.40
5.14 4.14 28.40
5.24 4.06 28.40
3.40 3.94 28.40
5.55 3.69 28.40
5.58 3.47 28.40
3.15 3.22 28.40
3.16 3.07 28.40
3.33 2.64 28.40
3.57 2.56 28.40
4.24 2.15 28.40
4.01 4.35 28.60
4.75 4.30 28.60
5.09 4.16 28.60
3.46 4.04 28.60
5.25 4.03 28.60
3.32 3.84 28.60
3.31 2.66 28.60
5.21 2.49 28.60
3.50 2.44 28.60
5.09 2.35 28.60
3.94 2.24 28.60
3.95 4.32 28.80
4.85 4.27 28.80
5.01 4.20 28.80
3.53 4.13 28.80
5.25 4.04 28.80
3.26 3.75 28.80
3.14 3.00 28.80
3.32 2.62 28.80
5.09 2.36 28.80
3.60 2.33 28.80
3.83 4.31 29.00
3.59 4.19 29.00
5.19 4.08 29.00
5.46 3.78 29.00
3.23 3.74 29.00
5.50 3.50 29.00
3.12 3.09 29.00
3.17 2.83 29.00
3.32 2.59 29.00
5.45 2.53 29.00
3.60 2.36 29.00
5.08 2.33 29.00
4.73 4.31 29.20
3.68 4.30 29.20
5.19 4.07 29.20
5.34 3.90 29.20
3.26 3.83 29.20
3.19 3.68 29.20
3.11 3.20 29.20
5.50 3.17 29.20
3.22 2.76 29.20
5.39 2.72 29.20
3.31 2.61 29.20
5.30 2.58 29.20
5.06 2.31 29.20
3.81 2.26 29.20
4.49 4.34 29.40
4.83 4.28 29.40
5.22 3.97 29.40
3.22 3.79 29.40
3.15 3.59 29.40
3.10 3.38 29.40
5.44 2.83 29.40
3.27 2.65 29.40
5.26 2.56 29.40
4.72 2.54 29.40
4.98 2.31 29.40
3.65 2.31 29.40
3.96 2.20 29.40
4.36 4.34 29.60
4.86 4.28 29.60
3.39 4.05 29.60
5.18 4.03 29.60
3.17 3.71 29.60
5.63 3.65 29.60
3.07 3.46 29.60
3.27 2.60 29.60
5.28 2.57 29.60
5.09 2.39 29.60
3.54 2.35 29.60
4.93 2.30 29.60
4.08 2.16 29.60
4.45 4.35 29.80
4.31 4.35 29.80
4.91 4.26 29.80
3.52 4.14 29.80
5.11 4.09 29.80
3.30 3.97 29.80
3.15 3.72 29.80
5.65 3.09 29.80
5.30 2.59 29.80
3.29 2.54 29.80
5.16 2.42 29.80
3.46 2.35 29.80
3.98 2.14 29.80
4.12 2.11 29.80
4.17 4.36 30.00
4.44 4.32 30.00
3.76 4.25 30.00
3.20 3.83 30.00
3.13 3.67 30.00
5.41 3.29 30.00
3.01 3.29 30.00
3.03 3.10 30.00
5.45 2.98 30.00
5.26 2.58 30.00
4.69 2.55 30.00
5.17 2.47 30.00
3.99 2.14 30.00
4.23 2.08 30.00
3.93 4.35 30.20
4.40 4.32 30.20
3.62 4.29 30.20
4.76 4.23 30.20
3.15 3.75 30.20
5.39 3.38 30.20
2.98 3.35 30.20
3.04 2.94 30.20
5.20 2.51 30.20
4.05 2.09 30.20
4.36 4.34 30.40
4.61 4.29 30.40
4.92 4.13 30.40
3.08 3.66 30.40
5.39 3.48 30.40
2.95 3.38 30.40
5.41 3.33 30.40
3.03 2.89 30.40
5.53 2.73 30.40
5.21 2.50 30.40
3.67 2.15 30.40
4.33 4.30 30.60
3.81 4.30 30.60
4.51 4.27 30.60
5.12 3.93 30.60
5.36 3.62 30.60
3.03 3.60 30.60
2.96 3.46 30.60
5.41 3.38 30.60
2.99 3.02 30.60
3.03 2.84 30.60
5.33 2.41 30.60
3.50 2.32 30.60
3.87 2.12 30.60
4.12 2.06 30.60
3.93 4.32 30.80
4.42 4.29 30.80
3.61 4.20 30.80
5.40 3.50 30.80
5.45 3.14 30.80
2.95 2.99 30.80
3.07 2.68 30.80
3.19 2.51 30.80
4.99 2.29 30.80
4.00 4.33 31.00
4.40 4.29 31.00
3.52 4.16 31.00
5.40 3.57 31.00
2.91 3.44 31.00
5.45 3.32 31.00
2.93 3.02 31.00
4.96 2.20 31.00
4.12 4.34 31.20
4.37 4.31 31.20
3.52 4.18 31.20
4.92 4.14 31.20
5.38 3.62 31.20
2.98 3.58 31.20
5.43 3.46 31.20
2.89 3.28 31.20
2.91 3.02 31.20
5.14 2.31 31.20
4.95 2.17 31.20
4.75 4.18 31.40
3.50 4.17 31.40
3.32 4.07 31.40
5.04 4.06 31.40
3.08 3.77 31.40
5.39 3.55 31.40
2.87 3.16 31.40
2.89 3.02 31.40
3.00 2.62 31.40
5.34 2.55 31.40
3.15 2.45 31.40
5.25 2.39 31.40
4.89 2.12 31.40
4.67 4.21 31.60
3.48 4.17 31.60
5.13 4.01 31.60
3.15 3.97 31.60
5.34 3.68 31.60
2.85 3.10 31.60
2.93 2.66 31.60
3.26 2.29 31.60
4.94 2.07 31.60
3.74 4.31 31.80
4.71 4.17 31.80
3.40 4.14 31.80
5.23 3.96 31.80
5.33 3.77 31.80
2.84 3.02 31.80
2.90 2.71 31.80
5.35 2.33 31.80
3.29 2.25 31.80
4.90 2.04 31.80
4.04 4.30 32.00
4.55 4.22 32.00
3.51 4.17 32.00
4.81 4.14 32.00
3.34 4.09 32.00
2.83 2.94 32.00
2.86 2.78 32.00
5.41 2.55 32.00
5.29 2.27 32.00
3.22 2.27 32.00
3.40 2.13 32.00
4.87 2.01 32.00
4.28 4.29 32.20
3.77 4.27 32.20
4.47 4.25 32.20
4.86 4.13 32.20
3.39 4.06 32.20
5.34 3.73 32.20
2.95 3.65 32.20
2.85 3.40 32.20
5.45 2.65 32.20
5.24 2.20 32.20
3.29 2.15 32.20
4.83 1.95 32.20
3.57 1.88 32.20
3.76 4.19 32.40
4.83 4.11 32.40
3.30 3.99 32.40
5.21 3.86 32.40
2.95 3.68 32.40
5.46 3.38 32.40
2.83 3.32 32.40
5.51 2.75 32.40
5.49 2.59 32.40
5.22 2.14 32.40
3.31 2.11 32.40
4.92 1.97 32.40
4.95 4.05 32.60
3.27 3.95 32.60
5.09 3.92 32.60
3.02 3.80 32.60
2.83 3.26 32.60
5.53 2.83 32.60
5.50 2.60 32.60
2.97 2.42 32.60
3.11 2.22 32.60
5.14 2.04 32.60
3.37 2.03 32.60
4.37 4.18 32.80
4.09 4.17 32.80
4.97 3.94 32.80
2.84 3.26 32.80
2.81 3.10 32.80
5.52 2.68 32.80
2.90 2.59 32.80
5.42 2.40 32.80
3.33 2.06 32.80
3.44 1.98 32.80
4.44 4.16 33.00
4.00 4.14 33.00
4.89 3.96 33.00
5.41 3.35 33.00
2.84 3.32 33.00
2.80 3.05 33.00
2.82 2.78 33.00
5.55 2.76 33.00
5.52 2.58 33.00
5.37 2.24 33.00
3.43 1.98 33.00
4.60 4.13 33.20
3.96 4.13 33.20
4.81 4.00 33.20
5.31 3.49 33.20
2.83 3.29 33.20
5.47 3.24 33.20
2.79 2.88 33.20
5.56 2.76 33.20
5.54 2.61 33.20
5.25 2.09 33.20
3.56 1.87 33.20
4.77 1.78 33.20
4.58 1.75 33.20
4.00 4.11 33.40
3.81 4.07 33.40
3.20 3.78 33.40
5.22 3.58 33.40
2.94 3.49 33.40
2.84 3.23 33.40
5.56 3.09 33.40
5.57 2.70 33.40
5.13 1.93 33.40
4.91 1.81 33.40
4.00 4.09 33.60
3.66 4.03 33.60
3.41 3.91 33.60
5.22 3.60 33.60
2.88 3.37 33.60
2.83 3.23 33.60
5.61 3.04 33.60
5.61 2.76 33.60
2.76 2.74 33.60
2.81 2.60 33.60
4.55 1.65 33.60
4.29 4.07 33.80
3.99 4.07 33.80
4.48 4.04 33.80
3.52 3.99 33.80
5.16 3.68 33.80
5.34 3.50 33.80
2.85 3.29 33.80
5.62 3.02 33.80
5.64 2.83 33.80
2.77 2.77 33.80
2.88 2.49 33.80
5.21 1.79 33.80
4.50 1.72 33.80
4.16 4.04 34.00
3.95 4.00 34.00
4.81 3.88 34.00
5.08 3.75 34.00
5.52 3.37 34.00
2.86 3.20 34.00
2.79 2.85 34.00
3.00 2.35 34.00
5.39 1.85 34.00
5.15 1.70 34.00
4.54 1.57 34.00
4.05 3.98 34.20
3.92 3.96 34.20
5.64 3.31 34.20
2.80 2.91 34.20
2.98 2.37 34.20
3.09 2.21 34.20
5.54 1.90 34.20
5.15 1.60 34.20
4.55 1.52 34.20
4.03 3.98 34.40
3.42 3.76 34.40
3.27 3.62 34.40
5.72 3.28 34.40
5.83 3.12 34.40
5.87 2.92 34.40
5.92 2.64 34.40
3.01 2.32 34.40
3.17 2.06 34.40
5.61 1.89 34.40
5.51 1.79 34.40
3.45 1.79 34.40
5.14 1.52 34.40
3.96 3.90 34.60
4.92 3.79 34.60
3.56 3.78 34.60
5.17 3.71 34.60
3.23 3.49 34.60
5.79 3.29 34.60
5.91 2.45 34.60
3.07 2.29 34.60
5.69 1.90 34.60
5.55 1.77 34.60
5.12 1.48 34.60
4.88 1.46 34.60
3.79 3.82 34.80
4.79 3.80 34.80
5.49 3.68 34.80
5.76 3.48 34.80
3.25 3.37 34.80
2.98 2.74 34.80
3.03 2.44 34.80
3.16 2.21 34.80
5.87 2.03 34.80
5.60 1.72 34.80
4.70 3.81 35.00
5.66 3.65 35.00
3.30 3.41 35.00
3.20 3.29 35.00
3.02 2.80 35.00
3.13 2.31 35.00
3.20 2.16 35.00
5.71 1.72 35.00
5.30 1.38 35.00
4.66 3.81 35.20
4.82 3.80 35.20
3.35 3.37 35.20
3.21 3.19 35.20
3.10 2.90 35.20
6.07 2.23 35.20
3.23 2.19 35.20
5.74 1.70 35.20
5.51 1.48 35.20
5.17 1.32 35.20
4.94 3.81 35.40
4.54 3.81 35.40
3.83 3.65 35.40
3.61 3.54 35.40
3.36 3.26 35.40
6.13 2.53 35.40
6.05 2.11 35.40
3.36 2.08 35.40
5.78 1.68 35.40
5.67 1.57 35.40
4.91 1.23 35.40
4.99 3.83 35.60
4.45 3.83 35.60
5.50 3.77 35.60
4.26 3.76 35.60
5.78 3.57 35.60
3.50 3.38 35.60
3.36 3.18 35.60
6.16 2.70 35.60
6.08 2.01 35.60
5.82 1.64 35.60
4.67 1.14 35.60
5.05 3.85 35.80
5.37 3.83 35.80
3.49 3.26 35.80
6.19 3.19 35.80
3.40 3.14 35.80
6.20 2.92 35.80
6.23 2.69 35.80
3.19 2.63 35.80
3.22 2.45 35.80
6.12 1.97 35.80
5.92 1.71 35.80
5.18 3.87 36.00
4.54 3.84 36.00
4.43 3.79 36.00
3.48 3.10 36.00
6.25 2.77 36.00
3.29 2.63 36.00
3.39 2.24 36.00
6.13 1.85 36.00
5.57 1.23 36.00
4.50 1.15 36.00
5.16 3.92 36.20
4.63 3.86 36.20
4.29 3.64 36.20
6.30 3.07 36.20
6.28 2.93 36.20
3.46 2.84 36.20
3.38 2.61 36.20
6.34 2.52 36.20
3.49 2.17 36.20
3.57 2.03 36.20
5.83 1.42 36.20
5.50 1.17 36.20
4.74 1.07 36.20
5.06 3.94 36.40
4.72 3.89 36.40
5.82 3.77 36.40
4.20 3.52 36.40
6.29 3.16 36.40
6.33 3.04 36.40
6.37 2.84 36.40
3.42 2.66 36.40
6.38 2.44 36.40
3.51 2.15 36.40
6.00 1.53 36.40
5.48 1.12 36.40
4.74 1.06 36.40
4.84 3.93 36.60
5.51 3.88 36.60
5.96 3.66 36.60
4.25 3.48 36.60
4.17 3.39 36.60
6.30 3.20 36.60
6.34 3.02 36.60
6.39 2.30 36.60
3.60 2.05 36.60
6.16 1.69 36.60
6.05 1.54 36.60
5.47 1.08 36.60
5.09 1.05 36.60
5.44 3.89 36.80
6.13 3.57 36.80
6.26 3.39 36.80
4.24 3.36 36.80
4.07 3.19 36.80
3.79 2.70 36.80
3.62 2.25 36.80
6.42 2.11 36.80
6.35 1.94 36.80
3.70 1.93 36.80
6.08 1.54 36.80
5.33 3.94 37.00
5.49 3.91 37.00
6.23 3.52 37.00
4.19 3.28 37.00
3.99 3.05 37.00
3.65 2.14 37.00
3.51 1.89 37.00
3.73 1.88 37.00
6.12 1.53 37.00
5.19 3.95 37.20
5.58 3.87 37.20
4.63 3.67 37.20
4.33 3.38 37.20
4.19 3.16 37.20
3.74 2.00 37.20
3.80 1.85 37.20
6.16 1.55 37.20
5.66 3.85 37.40
4.95 3.74 37.40
6.17 3.61 37.40
6.30 3.46 37.40
4.29 3.11 37.40
4.20 2.99 37.40
6.54 2.32 37.40
3.83 2.26 37.40
6.50 2.06 37.40
3.83 1.89 37.40
6.16 1.51 37.40
5.94 1.30 37.40
5.58 1.12 37.40
5.74 3.82 37.60
6.04 3.69 37.60
4.87 3.61 37.60
6.36 3.38 37.60
4.29 2.98 37.60
6.59 2.55 37.60
6.52 2.02 37.60
6.17 1.47 37.60
5.37 1.06 37.60
5.21 3.93 37.80
5.03 3.87 37.80
5.80 3.82 37.80
5.94 3.76 37.80
6.51 3.19 37.80
4.28 2.80 37.80
6.62 2.61 37.80
4.04 2.38 37.80
3.91 2.00 37.80
6.53 1.95 37.80
6.24 1.53 37.80
4.82 1.06 37.80
5.21 1.02 37.80
5.34 3.92 38.00
5.84 3.82 38.00
4.82 3.71 38.00
6.65 2.83 38.00
4.27 2.58 38.00
6.67 2.57 38.00
6.52 1.90 38.00
6.41 1.71 38.00
5.47 3.93 38.20
5.77 3.86 38.20
4.81 3.75 38.20
4.71 3.65 38.20
6.72 2.71 38.20
3.99 2.03 38.20
5.63 3.93 38.40
4.81 3.75 38.40
4.64 3.58 38.40
6.40 3.55 38.40
6.73 2.77 38.40
4.39 2.63 38.40
4.28 2.36 38.40
4.98 1.21 38.40
5.79 1.17 38.40
5.77 3.86 38.60
5.15 3.83 38.60
6.17 3.80 38.60
4.81 3.77 38.60
4.93 3.76 38.60
6.50 3.50 38.60
4.63 3.46 38.60
4.49 3.38 38.60
6.65 3.13 38.60
6.75 2.83 38.60
6.77 2.57 38.60
6.71 2.21 38.60
6.11 1.38 38.60
4.94 1.27 38.60
5.67 1.18 38.60
5.21 3.93 38.80
5.70 3.89 38.80
6.12 3.83 38.80
4.83 3.80 38.80
4.61 3.49 38.80
6.54 3.37 38.80
4.46 3.26 38.80
6.71 3.04 38.80
6.78 2.85 38.80
4.26 2.34 38.80
4.17 2.11 38.80
6.66 2.08 38.80
6.25 1.51 38.80
6.16 1.44 38.80
5.18 1.26 38.80
5.52 1.21 38.80
4.99 3.92 39.00
5.67 3.90 39.00
6.05 3.88 39.00
5.29 3.86 39.00
6.14 3.75 39.00
4.81 3.72 39.00
4.60 3.50 39.00
6.51 3.42 39.00
6.71 3.31 39.00
4.43 3.26 39.00
6.80 3.07 39.00
6.78 2.32 39.00
6.67 2.08 39.00
6.63 1.95 39.00
6.44 1.69 39.00
6.19 1.47 39.00
5.35 1.25 39.00
5.89 4.00 39.20
5.53 3.94 39.20
5.34 3.90 39.20
4.87 3.85 39.20
6.20 3.78 39.20
4.78 3.68 39.20
6.42 3.60 39.20
4.62 3.52 39.20
4.39 3.22 39.20
6.71 2.97 39.20
4.32 2.73 39.20
6.78 2.37 39.20
4.19 2.23 39.20
4.28 2.18 39.20
4.32 2.13 39.20
6.63 2.04 39.20
6.55 1.82 39.20
6.19 1.48 39.20
5.79 4.09 39.40
5.47 4.08 39.40
6.21 3.96 39.40
4.79 3.83 39.40
6.30 3.79 39.40
4.63 3.59 39.40
6.77 3.37 39.40
4.34 3.36 39.40
6.82 3.23 39.40
4.31 3.08 39.40
4.32 2.94 39.40
6.75 2.90 39.40
6.81 2.51 39.40
4.15 2.17 39.40
4.18 2.12 39.40
4.33 2.10 39.40
6.58 2.01 39.40
6.27 1.56 39.40
5.83 4.11 39.60
5.46 4.09 39.60
6.05 3.92 39.60
6.29 3.83 39.60
4.71 3.81 39.60
6.48 3.79 39.60
4.60 3.58 39.60
6.71 3.50 39.60
4.40 3.48 39.60
6.85 3.18 39.60
4.19 3.03 39.60
6.79 2.85 39.60
6.83 2.61 39.60
6.82 2.30 39.60
4.16 2.06 39.60
4.37 2.02 39.60
6.57 1.98 39.60
4.54 1.98 39.60
6.18 1.59 39.60
5.58 1.34 39.60
5.89 1.33 39.60
5.42 4.11 39.80
5.88 4.02 39.80
6.18 3.94 39.80
6.30 3.88 39.80
4.61 3.76 39.80
6.63 3.69 39.80
4.50 3.64 39.80
6.77 3.39 39.80
6.87 3.29 39.80
6.89 3.19 39.80
4.19 2.94 39.80
6.90 2.65 39.80
6.80 2.23 39.80
6.55 1.97 39.80
4.53 1.95 39.80
6.36 1.79 39.80
6.16 1.51 39.80
5.35 1.42 39.80
5.63 1.34 39.80
5.35 4.17 40.00
5.79 4.06 40.00
6.27 3.98 40.00
6.55 3.78 40.00
4.56 3.59 40.00
6.90 3.37 40.00
4.23 3.20 40.00
6.95 3.15 40.00
4.16 2.99 40.00
6.92 2.87 40.00
4.17 2.83 40.00
6.91 2.70 40.00
4.16 2.45 40.00
6.75 2.12 40.00
4.20 2.11 40.00
6.57 2.04 40.00
6.36 1.72 40.00
5.57 1.42 40.00
5.17 1.41 40.00
5.36 1.40 40.00
5.34 4.12 40.20
6.17 4.11 40.20
5.73 4.09 40.20
6.33 3.97 40.20
6.50 3.84 40.20
4.53 3.59 40.20
6.80 3.35 40.20
4.25 3.25 40.20
6.90 3.07 40.20
6.92 2.94 40.20
4.17 2.86 40.20
4.15 2.73 40.20
6.88 2.67 40.20
3.97 2.41 40.20
4.21 2.35 40.20
4.32 2.10 40.20
6.74 2.09 40.20
4.49 1.99 40.20
6.59 1.91 40.20
5.55 1.50 40.20
5.22 1.46 40.20
5.46 4.21 40.40
5.97 4.17 40.40
5.66 4.11 40.40
6.39 4.01 40.40
6.84 3.61 40.40
4.30 3.58 40.40
4.51 3.57 40.40
4.31 3.31 40.40
6.99 3.25 40.40
4.20 2.79 40.40
6.88 2.70 40.40
4.17 2.42 40.40
6.66 2.23 40.40
4.42 2.06 40.40
5.72 1.70 40.40
5.59 1.55 40.40
5.19 1.50 40.40
5.56 4.23 40.60
5.82 4.22 40.60
6.65 3.98 40.60
6.67 3.73 40.60
4.51 3.55 40.60
4.23 3.39 40.60
4.29 3.13 40.60
7.06 3.10 40.60
6.88 2.78 40.60
4.15 2.69 40.60
6.83 2.58 40.60
4.28 2.57 40.60
6.69 2.33 40.60
5.94 1.85 40.60
5.53 1.78 40.60
6.54 3.90 40.80
6.75 3.71 40.80
4.56 3.65 40.80
4.17 3.20 40.80
6.94 3.05 40.80
6.92 2.94 40.80
4.14 2.91 40.80
6.92 2.41 40.80
4.20 2.38 40.80
6.75 2.19 40.80
6.05 1.96 40.80
4.24 1.89 40.80
5.45 1.88 40.80
5.81 1.82 40.80
5.33 4.06 41.00
6.45 3.97 41.00
6.77 3.71 41.00
4.60 3.70 41.00
6.94 3.10 41.00
4.14 3.07 41.00
7.11 2.94 41.00
6.72 2.45 41.00
4.20 2.37 41.00
4.41 2.28 41.00
6.57 2.10 41.00
6.11 1.98 41.00
5.37 1.92 41.00
5.96 1.85 41.00
5.53 4.11 41.20
6.37 4.03 41.20
5.17 3.92 41.20
6.84 3.64 41.20
6.95 3.24 41.20
4.32 2.96 41.20
6.68 2.43 41.20
4.38 2.40 41.20
4.45 2.34 41.20
6.29 2.12 41.20
4.43 2.11 41.20
6.10 2.07 41.20
5.21 1.99 41.20
5.66 4.17 41.40
6.24 4.15 41.40
6.43 4.07 41.40
5.17 3.89 41.40
5.03 3.83 41.40
6.88 3.65 41.40
6.97 3.38 41.40
4.34 2.86 41.40
4.45 2.44 41.40
6.58 2.32 41.40
6.20 2.18 41.40
5.78 4.22 41.60
6.17 4.17 41.60
5.44 4.16 41.60
6.40 4.11 41.60
5.14 3.83 41.60
6.91 3.60 41.60
4.54 3.57 41.60
6.96 3.49 41.60
4.44 3.42 41.60
6.92 3.05 41.60
4.38 2.72 41.60
4.43 2.51 41.60
6.32 2.29 41.60
6.07 2.22 41.60
5.73 2.19 41.60
5.96 4.24 41.80
6.33 4.19 41.80
5.18 3.81 41.80
4.69 3.56 41.80
4.44 3.32 41.80
6.92 3.12 41.80
6.90 2.94 41.80
4.43 2.62 41.80
4.98 2.45 41.80
6.37 2.35 41.80
6.16 2.30 41.80
5.56 2.19 41.80
6.21 4.34 42.00
6.49 4.19 42.00
6.66 4.02 42.00
5.17 3.78 42.00
4.29 3.67 42.00
4.87 3.63 42.00
7.07 3.62 42.00
6.93 3.27 42.00
4.45 3.27 42.00
6.85 2.87 42.00
4.53 2.50 42.00
6.56 2.43 42.00
6.23 2.36 42.00
5.32 2.24 42.00
6.21 4.38 42.20
6.40 4.28 42.20
4.09 4.24 42.20
4.02 4.12 42.20
6.70 3.98 42.20
5.14 3.74 42.20
4.25 3.61 42.20
4.17 3.46 42.20
6.93 3.29 42.20
6.83 2.85 42.20
4.50 2.62 42.20
4.54 2.54 42.20
6.33 2.45 42.20
4.60 2.40 42.20
6.21 4.41 42.40
6.35 4.34 42.40
6.80 3.83 42.40
6.94 3.32 42.40
4.49 3.22 42.40
6.91 3.17 42.40
6.80 2.81 42.40
4.52 2.69 42.40
6.40 2.52 42.40
4.66 2.36 42.40
6.24 4.47 42.60
5.25 4.29 42.60
6.83 3.80 42.60
6.94 3.46 42.60
6.91 3.21 42.60
4.50 3.17 42.60
4.53 2.84 42.60
6.77 2.77 42.60
6.52 2.57 42.60
5.00 2.49 42.60
5.39 2.24 42.60
6.17 4.55 42.80
5.11 4.26 42.80
5.38 4.23 42.80
6.87 3.79 42.80
6.93 3.61 42.80
6.92 3.29 42.80
4.51 3.07 42.80
4.53 2.89 42.80
5.49 2.20 42.80
5.80 4.83 43.00
6.10 4.65 43.00
4.99 3.46 43.00
6.94 3.32 43.00
5.59 2.24 43.00
5.15 4.87 43.20
6.78 3.91 43.20
6.87 3.76 43.20
4.50 3.41 43.20
6.93 3.40 43.20
4.52 3.17 43.20
6.88 3.15 43.20
6.83 2.97 43.20
4.59 2.78 43.20
6.70 2.76 43.20
4.70 2.59 43.20
5.71 2.23 43.20
5.55 2.18 43.20
5.24 4.84 43.40
5.07 4.76 43.40
6.72 4.02 43.40
6.88 3.82 43.40
6.94 3.43 43.40
6.90 3.27 43.40
4.50 3.22 43.40
4.58 2.73 43.40
4.70 2.49 43.40
6.37 2.48 43.40
5.91 2.24 43.40
5.67 2.17 43.40
5.47 2.00 43.40
5.25 4.80 43.60
5.00 4.67 43.60
6.71 4.05 43.60
6.90 3.80 43.60
6.93 3.35 43.60
4.40 3.25 43.60
4.57 2.73 43.60
4.70 2.45 43.60
6.29 2.39 43.60
6.09 2.26 43.60
5.79 2.17 43.60
5.57 4.74 43.80
5.77 4.71 43.80
5.24 4.70 43.80
6.71 4.08 43.80
6.95 3.70 43.80
6.94 3.35 43.80
4.39 2.71 43.80
4.65 2.44 43.80
5.92 2.19 43.80
5.66 2.16 43.80
5.46 2.15 43.80
5.49 4.69 44.00
5.97 4.64 44.00
5.25 4.64 44.00
6.65 4.19 44.00
6.76 4.08 44.00
6.95 3.73 44.00
6.96 3.50 44.00
4.54 2.91 44.00
4.55 2.70 44.00
4.58 2.45 44.00
6.03 2.15 44.00
5.83 2.11 44.00
5.46 4.67 44.20
5.24 4.61 44.20
6.14 4.57 44.20
6.62 4.24 44.20
6.77 4.09 44.20
6.95 3.76 44.20
6.97 3.59 44.20
7.00 2.63 44.20
4.58 2.39 44.20
4.70 2.23 44.20
6.13 2.14 44.20
5.98 2.10 44.20
5.36 4.55 44.40
6.34 4.47 44.40
6.54 4.34 44.40
6.79 4.06 44.40
4.59 3.84 44.40
7.06 2.73 44.40
6.75 2.44 44.40
4.62 2.32 44.40
4.76 2.16 44.40
6.09 2.13 44.40
5.38 4.54 44.60
6.72 4.17 44.60
6.95 3.93 44.60
4.48 3.86 44.60
7.07 3.74 44.60
7.26 3.08 44.60
4.38 2.77 44.60
7.11 2.75 44.60
4.45 2.46 44.60
6.78 2.27 44.60
4.65 2.22 44.60
6.22 2.07 44.60
5.35 4.52 44.80
6.73 4.18 44.80
6.91 4.01 44.80
4.60 3.78 44.80
7.13 3.64 44.80
4.53 3.63 44.80
4.41 2.87 44.80
7.16 2.77 44.80
4.50 2.33 44.80
6.95 2.28 44.80
6.73 2.21 44.80
4.65 2.17 44.80
6.45 2.07 44.80
6.02 4.58 45.00
6.75 4.17 45.00
6.87 4.05 45.00
4.58 3.75 45.00
4.44 3.65 45.00
7.23 3.43 45.00
4.44 3.00 45.00
7.21 2.84 45.00
7.16 2.71 45.00
4.51 2.28 45.00
4.61 2.16 45.00
6.67 2.13 45.00
4.91 2.04 45.00
5.87 4.56 45.20
6.21 4.51 45.20
6.83 4.12 45.20
4.54 3.64 45.20
7.30 3.32 45.20
4.51 3.30 45.20
7.33 3.05 45.20
7.26 2.87 45.20
7.16 2.63 45.20
4.56 2.20 45.20
5.83 4.53 45.40
6.32 4.49 45.40
4.80 4.18 45.40
6.83 4.16 45.40
4.48 3.53 45.40
7.38 3.17 45.40
7.33 2.99 45.40
7.17 2.62 45.40
6.87 2.22 45.40
6.80 2.15 45.40
4.59 2.10 45.40
4.87 1.89 45.40
5.52 1.83 45.40
5.84 4.51 45.60
6.45 4.44 45.60
6.80 4.19 45.60
4.64 3.93 45.60
4.45 3.45 45.60
7.19 2.62 45.60
4.36 2.42 45.60
7.79 2.14 45.60
4.64 2.00 45.60
4.85 1.85 45.60
5.74 4.50 45.80
5.93 4.50 45.80
6.54 4.38 45.80
6.71 4.30 45.80
4.51 3.60 45.80
4.45 3.41 45.80
7.35 3.23 45.80
7.18 2.56 45.80
4.37 2.55 45.80
7.02 2.35 45.80
4.43 2.27 45.80
6.24 1.85 45.80
4.83 1.83 45.80
5.78 1.75 45.80
5.96 4.50 46.00
4.47 3.41 46.00
7.32 3.35 46.00
4.38 2.64 46.00
7.15 2.43 46.00
7.05 2.33 46.00
4.48 2.19 46.00
5.96 4.46 46.20
7.29 3.38 46.20
4.43 3.27 46.20
7.38 3.02 46.20
4.37 2.72 46.20
7.15 2.46 46.20
4.48 2.18 46.20
5.93 4.42 46.40
6.47 4.35 46.40
7.28 3.34 46.40
4.41 3.01 46.40
7.36 2.93 46.40
4.39 2.77 46.40
7.12 2.41 46.40
4.44 2.25 46.40
4.51 2.13 46.40
5.91 4.42 46.60
6.27 4.40 46.60
6.63 4.21 46.60
7.25 3.46 46.60
7.29 3.32 46.60
7.33 2.78 46.60
7.17 2.45 46.60
4.46 2.23 46.60
4.53 2.07 46.60
6.48 1.82 46.60
4.83 1.79 46.60
6.28 1.70 46.60
6.18 4.37 46.80
5.00 4.11 46.80
6.81 4.04 46.80
7.22 3.51 46.80
7.29 3.28 46.80
7.32 2.75 46.80
7.24 2.58 46.80
4.44 2.18 46.80
4.56 1.99 46.80
6.57 1.86 46.80
4.79 1.77 46.80
6.23 1.65 46.80
6.11 4.32 47.00
4.83 3.94 47.00
6.98 3.80 47.00
7.17 3.56 47.00
7.24 3.22 47.00
7.31 2.69 47.00
4.39 2.69 47.00
4.41 2.42 47.00
4.46 2.13 47.00
6.64 1.91 47.00
4.64 1.89 47.00
4.74 1.78 47.00
6.14 1.58 47.00
4.87 3.99 47.20
4.68 3.81 47.20
7.21 3.31 47.20
4.39 3.13 47.20
4.40 2.31 47.20
4.49 2.08 47.20
6.62 1.86 47.20
5.96 1.50 47.20
4.90 4.00 47.40
4.55 3.67 47.40
7.19 3.33 47.40
4.38 3.30 47.40
7.22 3.05 47.40
7.19 2.74 47.40
4.43 2.23 47.40
4.50 2.05 47.40
6.70 1.90 47.40
5.03 1.90 47.40
6.59 1.82 47.40
4.69 1.76 47.40
4.85 1.66 47.40
4.91 3.98 47.60
6.83 3.88 47.60
7.16 3.24 47.60
7.18 3.08 47.60
7.17 2.68 47.60
4.45 2.17 47.60
6.79 1.98 47.60
6.61 1.81 47.60
4.67 1.75 47.60
4.96 1.60 47.60
6.68 3.98 47.80
4.90 3.92 47.80
6.90 3.77 47.80
7.14 3.21 47.80
7.16 3.11 47.80
7.19 3.02 47.80
7.06 2.36 47.80
4.41 2.14 47.80
6.82 1.96 47.80
4.62 1.77 47.80
6.59 1.76 47.80
6.60 4.01 48.00
4.87 3.90 48.00
6.90 3.74 48.00
7.14 3.16 48.00
7.00 2.23 48.00
6.92 2.09 48.00
4.46 2.06 48.00
6.63 1.80 48.00
4.63 1.76 48.00
6.17 1.46 48.00
5.21 4.07 48.20
6.56 3.99 48.20
4.92 3.88 48.20
6.95 3.59 48.20
7.10 3.16 48.20
4.46 1.99 48.20
6.65 1.78 48.20
4.60 1.76 48.20
6.32 1.51 48.20
4.92 1.51 48.20
6.04 1.39 48.20
6.47 4.01 48.40
5.11 3.98 48.40
6.60 3.90 48.40
4.98 3.88 48.40
6.96 3.46 48.40
4.41 3.21 48.40
7.06 3.20 48.40
4.31 2.89 48.40
6.89 2.33 48.40
4.51 1.83 48.40
6.62 1.74 48.40
6.40 1.55 48.40
4.90 1.50 48.40
4.83 1.47 48.40
5.43 4.49 48.60
5.22 4.30 48.60
6.41 4.03 48.60
5.05 3.91 48.60
6.58 3.89 48.60
7.01 3.33 48.60
4.49 3.32 48.60
4.33 2.76 48.60
6.88 2.45 48.60
6.87 2.23 48.60
6.59 1.69 48.60
6.47 1.59 48.60
4.94 1.45 48.60
5.02 3.87 48.80
6.56 3.85 48.80
4.57 3.46 48.80
4.31 2.69 48.80
6.87 2.47 48.80
6.87 2.17 48.80
4.62 1.71 48.80
6.53 1.63 48.80
4.77 1.51 48.80
4.98 1.39 48.80
6.49 3.84 49.00
4.88 3.74 49.00
4.68 3.54 49.00
6.81 3.48 49.00
4.31 2.74 49.00
4.30 2.61 49.00
6.87 2.48 49.00
6.84 2.04 49.00
4.54 1.80 49.00
6.54 1.63 49.00
4.79 1.49 49.00
4.98 1.36 49.00
6.44 3.82 49.20
6.68 3.55 49.20
6.81 3.23 49.20
4.30 2.73 49.20
4.27 2.48 49.20
6.83 2.38 49.20
4.44 1.96 49.20
6.82 1.93 49.20
6.62 1.66 49.20
4.80 1.44 49.20
4.96 1.33 49.20
6.41 3.80 49.40
6.58 3.62 49.40
6.81 3.07 49.40
4.27 2.69 49.40
6.82 2.41 49.40
4.27 2.33 49.40
6.80 2.26 49.40
4.41 2.02 49.40
6.81 1.87 49.40
6.70 1.71 49.40
4.83 1.41 49.40
6.40 3.75 49.60
6.49 3.65 49.60
6.81 3.02 49.60
4.27 2.59 49.60
6.82 2.44 49.60
6.79 2.23 49.60
4.31 2.11 49.60
5.10 1.72 49.60
4.83 1.37 49.60
6.40 3.66 49.80
4.46 3.24 49.80
4.30 2.91 49.80
6.80 2.81 49.80
4.23 2.56 49.80
6.81 2.51 49.80
6.80 2.26 49.80
6.73 1.92 49.80
4.87 1.30 49.80
6.32 3.69 50.00
4.67 3.45 50.00
4.27 2.78 50.00
6.79 2.59 50.00
4.21 2.53 50.00
6.81 2.23 50.00
6.78 2.01 50.00
4.42 1.88 50.00
4.50 1.73 50.00
6.61 1.67 50.00
4.94 1.23 50.00
6.21 3.72 50.20
4.88 3.63 50.20
4.24 2.69 50.20
6.95 2.53 50.20
4.21 2.51 50.20
6.83 2.24 50.20
6.82 2.02 50.20
4.36 1.89 50.20
4.50 1.64 50.20
6.52 1.50 50.20
6.82 2.66 50.40
4.19 2.58 50.40
6.86 2.45 50.40
6.85 2.18 50.40
6.83 2.01 50.40
4.27 1.94 50.40
4.56 1.55 50.40
6.43 1.31 50.40
6.78 2.72 50.60
4.18 2.45 50.60
6.88 2.39 50.60
6.83 2.04 50.60
4.21 1.97 50.60
4.53 1.51 50.60
5.09 3.67 50.80
6.18 3.58 50.80
4.91 3.53 50.80
6.79 2.82 50.80
6.92 2.41 50.80
4.16 2.27 50.80
6.90 2.04 50.80
4.15 2.00 50.80
4.50 1.54 50.80
4.61 1.42 50.80
5.11 3.66 51.00
6.37 3.41 51.00
4.76 3.39 51.00
6.78 2.83 51.00
6.83 2.71 51.00
6.92 2.32 51.00
6.89 2.01 51.00
4.48 1.54 51.00
4.61 1.34 51.00
5.09 1.03 51.00
5.15 3.66 51.20
4.68 3.33 51.20
6.50 3.25 51.20
6.71 3.04 51.20
6.75 2.90 51.20
6.82 2.69 51.20
6.92 2.26 51.20
6.91 2.00 51.20
4.50 1.50 51.20
6.78 1.46 51.20
6.65 1.29 51.20
4.71 1.20 51.20
4.96 1.05 51.20
5.21 3.65 51.40
4.69 3.37 51.40
4.55 3.21 51.40
6.64 3.15 51.40
6.74 3.00 51.40
6.80 2.72 51.40
6.95 2.14 51.40
4.24 2.11 51.40
4.29 1.81 51.40
6.81 1.48 51.40
4.50 1.47 51.40
5.24 3.64 51.60
4.65 3.34 51.60
4.45 3.07 51.60
6.78 2.79 51.60
4.25 2.55 51.60
6.86 2.45 51.60
7.33 2.04 51.60
4.08 1.99 51.60
4.32 1.72 51.60
6.84 1.51 51.60
4.47 1.45 51.60
6.20 3.50 51.80
6.33 3.41 51.80
4.60 3.27 51.80
6.72 2.82 51.80
4.26 2.82 51.80
6.81 2.56 51.80
6.94 2.28 51.80
7.12 2.13 51.80
4.35 1.65 51.80
6.82 1.47 51.80
4.48 1.46 51.80
4.81 1.02 51.80
4.99 0.96 51.80
6.38 3.35 52.00
4.54 3.17 52.00
6.72 2.84 52.00
6.79 2.67 52.00
6.91 2.16 52.00
6.79 2.04 52.00
4.44 1.56 52.00
6.87 1.53 52.00
6.78 1.39 52.00
4.76 1.06 52.00
5.13 0.91 52.00
5.05 3.53 52.20
4.66 3.43 52.20
6.46 3.28 52.20
4.50 3.13 52.20
6.72 2.84 52.20
6.78 2.69 52.20
6.93 2.02 52.20
6.88 1.52 52.20
4.45 1.50 52.20
4.72 1.10 52.20
5.20 0.89 52.20
5.18 3.55 52.40
6.52 3.19 52.40
4.49 3.11 52.40
6.76 2.77 52.40
4.13 2.13 52.40
5.67 2.01 52.40
7.12 1.92 52.40
6.94 1.83 52.40
6.92 1.58 52.40
4.46 1.42 52.40
6.77 1.34 52.40
4.65 1.13 52.40
5.18 0.85 52.40
5.37 3.55 52.60
6.56 3.15 52.60
4.52 3.15 52.60
6.75 2.80 52.60
4.10 2.30 52.60
5.73 2.06 52.60
7.09 2.01 52.60
4.16 1.92 52.60
6.95 1.75 52.60
6.80 1.36 52.60
4.51 1.30 52.60
4.65 1.14 52.60
5.16 0.85 52.60
5.33 0.82 52.60
6.63 3.06 52.80
4.44 3.05 52.80
6.71 2.88 52.80
4.13 2.49 52.80
4.16 1.86 52.80
6.78 1.33 52.80
5.13 0.83 52.80
5.43 0.78 52.80
6.66 3.02 53.00
4.29 2.94 53.00
4.13 2.62 53.00
7.02 1.94 53.00
4.18 1.81 53.00
7.02 1.78 53.00
5.57 1.37 53.00
4.85 0.92 53.00
5.18 0.81 53.00
5.52 0.72 53.00
6.39 3.27 53.20
6.94 2.84 53.20
4.15 2.74 53.20
7.01 2.60 53.20
7.01 2.01 53.20
4.18 1.83 53.20
7.00 1.71 53.20
4.71 1.02 53.20
4.96 0.85 53.20
5.21 0.78 53.20
6.52 3.10 53.40
6.99 2.09 53.40
4.09 1.89 53.40
6.98 1.65 53.40
4.20 1.65 53.40
4.54 1.14 53.40
5.02 0.83 53.40
5.25 0.76 53.40
