25.13 -226.54 1756.20
24.89 -226.26 1756.14
24.94 -226.35 1756.34
25.32 -226.71 1756.22
25.37 -226.76 1756.20
26.72 -226.21 1756.31
25.42 -226.81 1756.32
26.91 -226.43 1756.31
27.07 -226.49 1756.28
27.22 -226.56 1756.31
27.25 -226.55 1756.19
25.74 -227.03 1756.24
25.61 -226.94 1756.23
25.94 -227.12 1756.36
27.40 -226.75 1756.28
27.62 -227.19 1756.09
27.45 -227.03 1756.29
26.05 -227.24 1756.22
27.33 -227.30 1756.34
27.51 -227.19 1756.22
27.45 -227.20 1756.27
26.25 -227.69 1756.08
26.62 -227.48 1756.33
26.60 -227.32 1756.36
26.66 -227.50 1756.34
26.79 -227.35 1756.42
26.88 -227.47 1756.39
27.13 -227.37 1756.40
27.01 -227.63 1756.34
27.25 -227.43 1756.35
27.23 -227.68 1756.29
27.48 -227.48 1756.19
27.59 -227.43 1756.09
27.55 -227.50 1756.12
26.21 -227.85 1756.02
26.40 -227.90 1756.14
26.53 -227.90 1756.20
26.82 -227.91 1756.26
26.97 -227.76 1756.30
27.05 -227.79 1756.29
27.12 -227.89 1756.25
27.21 -227.84 1756.25
27.50 -227.87 1756.10
26.39 -228.09 1756.10
26.43 -228.18 1756.11
26.74 -228.09 1756.20
27.31 -228.11 1756.09
27.30 -228.14 1756.07
27.55 -227.91 1756.01
26.74 -228.30 1756.09
26.87 -228.29 1756.09
28.29 -166.71 1756.42
28.20 -166.76 1756.40
28.33 -166.84 1756.53
28.64 -166.80 1756.50
28.78 -166.67 1756.40
28.51 -166.52 1756.33
29.01 -166.62 1756.34
28.85 -166.58 1756.35
28.95 -166.67 1756.38
28.31 -167.09 1756.64
27.96 -166.96 1756.43
28.31 -166.99 1756.61
28.56 -167.01 1756.57
28.77 -166.88 1756.48
28.94 -166.98 1756.45
29.04 -166.90 1756.41
27.96 -167.28 1756.67
27.82 -167.06 1756.39
27.73 -167.14 1756.38
27.65 -167.23 1756.39
28.04 -167.12 1756.62
28.50 -167.12 1756.62
28.69 -167.38 1756.58
28.88 -167.24 1756.46
29.00 -167.24 1756.40
27.66 -167.39 1756.53
27.71 -167.35 1756.55
27.61 -167.72 1756.72
27.58 -167.66 1756.64
27.77 -167.49 1756.70
28.70 -167.66 1756.50
28.79 -167.56 1756.51
28.69 -167.61 1756.51
27.34 -167.92 1756.67
27.28 -167.90 1756.57
27.10 -168.13 1756.61
27.36 -168.06 1756.86
27.56 -167.75 1756.70
27.69 -167.79 1756.87
27.58 -167.89 1756.88
28.84 -167.70 1756.54
29.06 -167.91 1756.63
29.13 -167.95 1756.52
29.25 -168.19 1756.50
26.59 -168.50 1756.45
26.72 -168.44 1756.75
26.78 -168.33 1756.55
29.26 -168.14 1756.58
29.36 -168.21 1756.58
29.75 -168.35 1756.61
29.70 -168.33 1756.64
29.91 -168.44 1756.53
30.15 -168.51 1756.48
30.24 -168.57 1756.66
26.46 -168.62 1756.69
26.62 -168.52 1756.75
29.80 -168.41 1756.46
30.06 -168.48 1756.49
30.41 -168.70 1756.45
30.53 -168.86 1756.63
25.41 -169.30 1756.77
25.65 -169.19 1756.59
25.84 -169.09 1756.46
26.05 -168.89 1756.59
25.85 -169.07 1756.48
30.51 -169.14 1756.53
30.56 -169.23 1756.16
30.55 -168.96 1756.66
25.75 -169.35 1756.38
25.65 -169.39 1756.48
25.50 -169.31 1756.67
30.21 -169.59 1756.45
30.37 -169.47 1756.14
30.45 -169.32 1756.35
30.35 -169.41 1756.45
30.48 -169.32 1756.26
25.72 -169.65 1756.42
25.73 -169.94 1756.57
30.00 -169.84 1756.51
25.96 -170.15 1756.52
25.87 -170.03 1756.51
25.84 -169.91 1756.44
29.81 -170.13 1756.50
26.03 -170.22 1756.50
26.03 -170.48 1756.66
26.19 -170.43 1756.51
26.22 -170.40 1756.47
29.78 -170.28 1756.71
29.71 -170.45 1756.78
29.67 -170.55 1756.85
29.58 -170.46 1756.49
29.59 -170.56 1756.70
26.04 -170.53 1756.66
26.42 -170.61 1756.46
26.29 -170.69 1756.53
26.60 -170.62 1756.41
29.34 -170.75 1756.60
29.24 -170.78 1756.52
29.33 -170.76 1756.59
29.41 -170.84 1756.91
29.57 -170.65 1756.84
29.44 -170.69 1756.65
29.65 -170.61 1756.93
24.09 -171.04 1756.70
26.08 -170.95 1756.60
26.22 -171.05 1756.53
26.51 -170.85 1756.49
26.65 -170.84 1756.45
27.00 -171.07 1756.37
28.35 -171.20 1756.52
28.97 -170.85 1756.36
28.86 -171.01 1756.59
29.05 -170.86 1756.45
29.03 -170.89 1756.48
29.01 -171.00 1756.66
24.12 -171.16 1756.69
25.79 -171.20 1756.66
26.10 -171.33 1756.48
25.97 -171.28 1756.55
26.19 -171.30 1756.47
26.41 -171.11 1756.48
26.40 -171.18 1756.47
26.84 -171.40 1756.36
26.64 -171.06 1756.44
26.57 -171.24 1756.41
26.91 -171.17 1756.38
27.31 -171.24 1756.31
27.13 -171.15 1756.34
27.41 -171.28 1756.32
27.92 -171.37 1756.44
28.13 -171.43 1756.63
28.05 -171.35 1756.48
23.46 -171.72 1756.50
23.59 -171.71 1756.45
23.74 -171.47 1756.53
24.00 -171.52 1756.49
24.08 -171.42 1756.62
24.20 -171.63 1756.55
25.63 -171.56 1756.64
25.59 -171.68 1756.65
25.75 -171.66 1756.56
25.94 -171.58 1756.48
26.35 -171.52 1756.39
26.65 -171.76 1756.32
26.62 -171.43 1756.38
26.63 -171.58 1756.35
27.05 -171.69 1756.34
27.57 -171.91 1756.58
27.72 -171.73 1756.60
27.54 -171.67 1756.42
27.88 -171.60 1756.61
27.76 -171.68 1756.59
23.19 -171.99 1756.54
23.47 -172.03 1756.40
23.67 -171.96 1756.33
23.37 -171.80 1756.51
24.45 -171.90 1756.55
25.65 -171.85 1756.59
25.79 -171.95 1756.54
25.62 -172.12 1756.62
25.92 -171.88 1756.47
26.91 -172.00 1756.33
27.08 -171.98 1756.37
26.95 -171.81 1756.33
27.20 -171.89 1756.39
27.47 -171.82 1756.44
22.86 -172.19 1756.64
23.29 -172.18 1756.45
23.25 -172.09 1756.48
23.56 -172.32 1756.32
23.61 -172.24 1756.31
23.46 -172.25 1756.37
24.76 -172.34 1756.47
24.72 -172.23 1756.54
25.66 -172.30 1756.64
26.12 -172.21 1756.47
26.16 -172.07 1756.41
25.92 -172.25 1756.55
26.85 -172.15 1756.38
27.04 -172.34 1756.50
27.00 -172.28 1756.44
27.30 -172.19 1756.57
27.30 -172.14 1756.53
22.85 -172.53 1756.65
23.31 -172.41 1756.42
23.11 -172.46 1756.51
23.60 -172.57 1756.27
23.61 -172.47 1756.28
24.95 -172.46 1756.55
25.03 -172.49 1756.56
25.16 -172.61 1756.54
25.33 -172.54 1756.62
25.27 -172.67 1756.55
26.07 -172.42 1756.55
26.22 -172.64 1756.58
26.57 -172.67 1756.55
27.23 -172.45 1756.69
27.13 -172.65 1756.71
26.74 -172.74 1756.53
26.82 -172.64 1756.53
23.16 -172.69 1756.48
23.22 -172.80 1756.45
23.17 -172.73 1756.48
23.06 -172.77 1756.62
24.86 -172.83 1756.26
25.02 -172.89 1756.34
25.41 -172.87 1756.48
25.73 -172.81 1756.58
26.32 -172.94 1756.54
26.64 -172.81 1756.53
26.80 -172.81 1756.59
26.77 -172.78 1756.56
26.75 -173.08 1756.60
23.15 -173.00 1756.62
25.65 -173.24 1756.32
25.69 -173.21 1756.37
25.68 -173.03 1756.47
26.02 -173.07 1756.50
25.97 -173.16 1756.45
26.18 -173.08 1756.51
26.48 -173.17 1756.50
26.66 -173.09 1756.52
23.21 -173.29 1756.76
23.23 -173.25 1756.67
23.52 -173.67 1756.46
23.24 -173.41 1756.80
26.22 -173.45 1756.48
26.32 -173.36 1756.48
26.47 -173.33 1756.50
26.39 -173.56 1756.61
26.70 -173.27 1756.61
23.53 -173.79 1756.50
23.50 -173.89 1756.56
23.91 -173.90 1756.35
25.96 -173.85 1756.48
25.94 -173.90 1756.51
26.05 -173.86 1756.61
26.23 -173.84 1756.74
26.05 -174.01 1756.79
26.29 -173.67 1756.65
23.31 -174.17 1756.73
23.57 -174.19 1756.59
23.46 -173.99 1756.61
23.69 -173.92 1756.45
23.96 -174.27 1756.53
23.98 -174.13 1756.45
24.22 -174.26 1756.47
24.08 -174.12 1756.41
24.27 -174.16 1756.37
24.53 -174.29 1756.44
24.58 -174.24 1756.35
24.48 -174.39 1756.59
24.50 -174.40 1756.62
25.82 -174.06 1756.48
25.82 -174.12 1756.58
25.76 -174.17 1756.67
25.50 -174.25 1756.58
25.68 -174.18 1756.48
23.31 -174.23 1756.73
23.56 -174.50 1756.72
23.32 -174.45 1756.75
23.66 -174.40 1756.65
23.65 -174.50 1756.70
22.29 -175.43 1756.64
22.55 -175.36 1756.61
22.65 -175.22 1756.69
22.60 -175.49 1756.53
22.78 -175.53 1756.51
22.36 -175.60 1756.57
22.48 -175.66 1756.52
22.38 -175.78 1756.53
18.83 -175.97 1756.75
19.21 -175.88 1756.70
19.14 -175.94 1756.68
19.36 -175.80 1756.72
19.20 -176.05 1756.64
19.66 -175.92 1756.69
19.65 -175.80 1756.73
22.69 -175.97 1756.50
22.55 -175.87 1756.47
22.81 -175.85 1756.49
22.71 -175.99 1756.55
18.73 -176.10 1756.74
19.37 -176.23 1756.59
19.37 -176.15 1756.61
19.09 -176.17 1756.60
19.41 -176.33 1756.56
21.69 -176.37 1756.62
21.94 -176.16 1756.61
21.96 -176.44 1756.61
14.58 -176.59 1756.64
14.61 -176.57 1756.69
14.76 -176.58 1756.74
16.00 -176.78 1756.70
16.28 -176.87 1756.67
16.25 -176.78 1756.71
18.84 -176.62 1756.53
19.31 -176.56 1756.51
19.09 -176.66 1756.48
19.09 -176.50 1756.52
19.58 -176.55 1756.54
19.67 -176.58 1756.55
21.84 -176.41 1756.61
21.91 -176.70 1756.72
21.93 -176.57 1756.63
14.18 -176.82 1756.43
14.30 -176.68 1756.51
14.45 -176.72 1756.43
15.06 -176.91 1756.50
14.66 -176.72 1756.41
14.73 -176.69 1756.50
15.16 -176.94 1756.47
15.69 -176.97 1756.67
15.92 -176.93 1756.62
16.51 -176.72 1756.79
18.30 -176.78 1756.63
18.35 -176.74 1756.63
18.48 -176.87 1756.54
18.62 -176.89 1756.50
18.84 -176.88 1756.46
18.92 -176.89 1756.44
19.24 -176.87 1756.44
19.57 -177.01 1756.45
19.62 -176.92 1756.47
19.64 -177.03 1756.45
21.08 -177.02 1756.58
21.43 -176.96 1756.63
13.40 -177.11 1756.70
13.65 -176.98 1756.63
13.69 -177.15 1756.44
13.86 -176.96 1756.52
13.80 -176.93 1756.58
14.07 -176.91 1756.43
15.20 -176.97 1756.55
15.51 -177.06 1756.66
15.39 -177.07 1756.60
15.26 -177.06 1756.39
15.72 -177.19 1756.54
15.92 -177.28 1756.55
15.89 -177.24 1756.55
16.03 -177.03 1756.59
16.43 -177.22 1756.62
16.29 -177.25 1756.61
17.36 -177.29 1756.60
17.66 -177.17 1756.62
17.73 -177.21 1756.58
17.87 -177.12 1756.59
17.94 -177.32 1756.48
18.31 -177.18 1756.47
18.40 -177.35 1756.41
18.21 -177.26 1756.46
18.69 -177.14 1756.41
18.60 -177.27 1756.39
19.13 -177.22 1756.34
19.48 -177.07 1756.42
19.75 -177.34 1756.37
19.90 -177.14 1756.45
19.82 -177.04 1756.47
19.90 -177.00 1756.49
19.99 -177.26 1756.43
20.00 -177.05 1756.49
20.29 -177.37 1756.44
20.08 -177.35 1756.41
20.41 -177.42 1756.46
21.05 -177.22 1756.64
21.31 -177.14 1756.61
21.24 -177.32 1756.84
21.22 -177.41 1757.01
21.44 -177.09 1756.64
13.40 -177.29 1756.53
13.28 -177.34 1756.58
13.13 -177.61 1756.48
13.11 -177.46 1756.60
13.49 -177.36 1756.42
15.21 -177.47 1756.42
15.07 -177.60 1756.36
15.42 -177.58 1756.50
15.38 -177.25 1756.46
15.45 -177.40 1756.49
15.82 -177.32 1756.54
15.74 -177.63 1756.58
16.10 -177.56 1756.62
16.26 -177.42 1756.62
16.61 -177.57 1756.60
17.14 -177.59 1756.50
16.86 -177.63 1756.53
16.84 -177.68 1756.51
17.11 -177.16 1756.70
17.49 -177.68 1756.39
17.36 -177.34 1756.58
17.17 -177.50 1756.53
17.68 -177.42 1756.48
17.54 -177.45 1756.49
17.81 -177.55 1756.39
19.33 -177.44 1756.28
19.51 -177.38 1756.33
20.58 -177.56 1756.56
20.43 -177.47 1756.45
21.03 -177.46 1756.90
21.03 -177.43 1756.84
12.72 -177.86 1756.58
12.89 -177.86 1756.46
13.29 -177.63 1756.36
14.94 -177.94 1756.38
14.83 -177.86 1756.26
15.18 -177.75 1756.45
15.03 -177.82 1756.40
15.53 -177.85 1756.55
15.54 -177.66 1756.53
15.38 -177.73 1756.50
15.75 -177.92 1756.59
16.09 -177.86 1756.61
16.37 -177.74 1756.60
16.63 -177.88 1756.50
16.63 -177.71 1756.55
16.87 -177.86 1756.45
18.41 -177.49 1756.37
18.49 -177.79 1756.30
20.56 -177.72 1756.59
20.44 -177.73 1756.43
12.80 -177.98 1756.47
14.87 -178.14 1756.37
14.81 -178.05 1756.30
15.05 -178.23 1756.43
15.04 -178.29 1756.43
15.54 -178.31 1756.56
15.34 -178.22 1756.52
15.85 -178.06 1756.60
15.99 -178.09 1756.58
16.08 -177.93 1756.60
16.50 -178.16 1756.47
16.39 -178.16 1756.49
16.32 -177.95 1756.56
16.67 -177.99 1756.46
18.37 -177.86 1756.30
20.29 -178.08 1756.42
12.29 -178.57 1756.64
12.25 -178.59 1756.66
12.60 -178.62 1756.48
14.80 -178.37 1756.36
14.84 -178.45 1756.39
15.19 -178.35 1756.46
15.77 -178.36 1756.57
15.56 -178.61 1756.57
16.10 -178.29 1756.54
15.90 -178.29 1756.57
16.31 -178.55 1756.48
16.47 -178.56 1756.44
16.51 -178.30 1756.44
18.84 -178.64 1756.63
18.94 -178.65 1756.51
12.40 -178.77 1756.65
12.51 -178.80 1756.60
12.78 -178.93 1756.62
12.78 -178.80 1756.46
12.84 -178.91 1756.56
12.70 -178.79 1756.38
14.65 -178.77 1756.41
14.97 -178.71 1756.46
15.23 -178.72 1756.53
15.05 -178.79 1756.51
15.50 -178.78 1756.59
15.79 -178.73 1756.58
15.65 -178.61 1756.57
16.05 -178.76 1756.55
15.92 -178.79 1756.57
15.95 -178.64 1756.55
16.37 -178.85 1756.53
16.32 -178.83 1756.53
16.74 -178.83 1756.40
16.78 -178.87 1756.39
18.72 -178.81 1756.49
18.80 -178.76 1756.27
13.00 -178.99 1756.46
13.20 -179.11 1756.54
13.64 -179.34 1756.56
13.37 -179.13 1756.37
13.48 -179.22 1756.45
14.64 -179.04 1756.37
14.66 -179.15 1756.40
14.90 -179.29 1756.56
15.25 -179.08 1756.60
14.98 -179.11 1756.58
15.60 -179.00 1756.60
15.62 -179.19 1756.62
15.33 -179.01 1756.60
15.77 -179.06 1756.61
15.82 -178.98 1756.59
16.11 -179.11 1756.70
16.18 -178.88 1756.57
16.53 -179.10 1756.61
16.41 -179.01 1756.61
16.58 -179.06 1756.56
16.92 -179.14 1756.35
16.85 -178.97 1756.37
13.76 -179.43 1756.60
14.61 -179.53 1756.51
14.84 -179.51 1756.57
14.68 -179.50 1756.53
15.04 -179.51 1756.61
15.21 -179.50 1756.61
15.35 -179.40 1756.62
15.39 -179.28 1756.62
15.78 -179.46 1756.67
16.81 -179.35 1756.50
16.81 -179.16 1756.44
16.94 -179.31 1756.38
14.23 -179.71 1756.62
14.24 -179.55 1756.47
14.52 -179.54 1756.48
14.39 -179.67 1756.56
14.58 -179.74 1756.64
14.80 -179.65 1756.61
15.22 -179.67 1756.62
14.92 -179.83 1756.66
15.49 -179.73 1756.61
15.52 -179.78 1756.60
15.63 -179.71 1756.61
16.79 -179.53 1756.65
17.15 -179.87 1756.54
16.94 -179.76 1756.67
17.01 -179.71 1756.54
17.35 -179.84 1756.43
17.32 -179.72 1756.34
17.67 -179.66 1756.29
17.54 -179.84 1756.43
18.01 -179.54 1756.33
18.13 -179.44 1756.51
17.99 -179.59 1756.55
14.58 -179.96 1756.74
14.79 -179.88 1756.68
15.03 -179.86 1756.65
15.99 -180.00 1756.56
16.14 -180.13 1756.54
16.17 -180.04 1756.64
17.35 -179.97 1756.61
17.72 -179.82 1756.57
9.89 -180.29 1756.65
10.06 -180.36 1756.60
10.25 -180.48 1756.53
15.16 -180.32 1756.67
15.42 -180.30 1756.55
15.54 -180.35 1756.51
15.67 -180.21 1756.48
16.14 -180.38 1756.55
16.22 -180.30 1756.68
9.76 -180.54 1756.62
9.91 -180.66 1756.51
10.01 -180.74 1756.44
9.89 -180.79 1756.52
10.08 -180.53 1756.49
10.65 -180.79 1756.65
10.49 -180.71 1756.44
15.25 -180.44 1756.63
15.62 -180.60 1756.61
15.41 -180.49 1756.59
15.87 -180.61 1756.61
15.97 -180.51 1756.49
16.02 -180.50 1756.54
10.01 -181.00 1756.45
10.66 -180.83 1756.54
10.67 -180.80 1756.68
10.77 -180.97 1756.44
9.91 -181.19 1756.55
10.22 -181.37 1756.40
10.09 -181.34 1756.48
10.06 -181.46 1756.55
10.15 -181.59 1756.55
10.11 -181.72 1756.64
10.38 -181.42 1756.33
11.08 -181.24 1756.62
11.20 -181.35 1756.67
10.98 -181.21 1756.29
11.23 -181.47 1756.34
11.28 -181.40 1756.73
10.33 -181.92 1756.62
10.40 -181.93 1756.58
10.54 -181.70 1756.36
10.61 -181.95 1756.47
10.82 -182.01 1756.39
10.79 -182.16 1756.56
10.75 -182.04 1756.45
11.25 -182.26 1756.65
10.96 -182.28 1756.66
11.12 -182.21 1756.47
10.98 -182.21 1756.55
11.46 -182.21 1756.72
39.58 -213.13 1756.89
39.61 -213.15 1756.70
39.89 -213.03 1756.55
39.65 -213.14 1756.59
40.02 -213.03 1756.52
40.09 -213.03 1756.53
40.23 -213.04 1756.39
39.00 -213.56 1756.62
39.19 -213.40 1756.59
38.98 -213.61 1756.57
38.98 -213.69 1756.41
39.04 -213.44 1756.79
39.26 -213.30 1756.85
39.28 -213.30 1756.71
39.49 -213.16 1756.89
40.75 -213.56 1756.69
40.82 -213.55 1756.53
38.68 -214.01 1756.61
38.71 -213.91 1756.58
38.74 -213.81 1756.66
40.93 -213.89 1756.74
38.89 -214.25 1756.42
38.84 -214.26 1756.44
41.00 -214.22 1756.56
40.99 -214.24 1756.59
41.05 -214.35 1756.38
41.02 -214.47 1756.47
38.74 -214.19 1756.51
38.69 -214.24 1756.61
38.78 -214.49 1756.73
41.04 -214.56 1756.40
38.84 -214.66 1756.81
38.93 -214.60 1756.51
38.90 -214.54 1756.48
40.66 -215.10 1756.64
41.00 -214.70 1756.41
40.90 -214.78 1756.60
39.24 -215.13 1756.67
39.40 -215.36 1756.80
39.37 -215.10 1756.46
38.94 -214.59 1756.49
39.40 -215.09 1756.39
39.13 -214.84 1756.50
38.96 -214.64 1756.51
39.53 -215.39 1756.78
40.05 -215.31 1756.83
39.77 -215.39 1756.85
39.87 -215.39 1756.70
40.06 -215.33 1756.72
40.17 -215.21 1757.04
40.14 -215.21 1757.09
40.27 -215.35 1756.36
40.33 -215.28 1756.58
40.06 -215.29 1756.93
40.11 -215.27 1756.95
40.58 -215.08 1756.83
25.36 -219.16 1756.63
25.56 -219.15 1756.56
25.87 -219.12 1756.53
25.94 -219.07 1756.56
26.09 -218.96 1756.66
26.32 -218.84 1756.78
26.27 -219.11 1756.57
26.46 -219.14 1756.59
26.41 -219.17 1756.55
26.45 -219.20 1756.54
25.17 -219.42 1756.51
25.25 -219.63 1756.27
25.55 -219.33 1756.41
25.52 -219.49 1756.27
25.42 -219.37 1756.43
25.22 -219.26 1756.62
25.61 -219.28 1756.45
26.79 -219.53 1756.46
26.62 -219.39 1756.46
27.00 -219.75 1756.48
27.04 -219.63 1756.62
27.08 -219.71 1756.60
27.10 -219.48 1756.81
27.22 -219.78 1756.75
27.12 -219.61 1756.72
24.68 -220.15 1756.75
24.81 -219.84 1756.53
27.30 -220.00 1756.70
27.35 -219.94 1756.83
24.64 -220.44 1756.74
24.64 -220.50 1756.55
24.63 -220.48 1756.71
27.37 -220.14 1756.71
27.27 -220.22 1756.48
27.44 -220.38 1756.64
27.39 -220.73 1756.34
27.52 -220.87 1756.56
27.51 -220.67 1756.64
27.53 -220.67 1756.66
24.57 -221.23 1756.97
24.55 -221.28 1756.76
24.56 -221.08 1756.62
27.54 -221.07 1756.45
27.63 -221.30 1756.44
27.68 -221.42 1756.48
27.58 -221.12 1756.51
24.41 -221.71 1756.68
24.47 -221.51 1756.58
24.40 -221.76 1756.62
27.94 -222.02 1756.66
27.91 -221.93 1756.63
24.23 -222.26 1756.47
24.18 -222.26 1756.61
27.93 -222.24 1756.50
27.92 -222.47 1756.32
24.06 -222.48 1756.69
24.13 -222.52 1756.45
24.13 -222.47 1756.50
27.64 -222.69 1756.60
27.54 -222.68 1756.67
27.85 -222.53 1756.49
27.74 -222.56 1756.64
27.74 -222.51 1756.72
24.00 -222.90 1756.46
23.93 -222.94 1756.61
24.04 -223.27 1756.37
23.91 -223.55 1756.71
24.00 -223.57 1756.50
23.98 -223.33 1756.49
23.98 -223.65 1756.58
24.05 -223.73 1756.48
27.36 -223.73 1756.34
27.37 -223.72 1756.33
27.29 -223.86 1756.59
24.13 -224.28 1756.58
24.07 -224.10 1756.63
24.27 -224.28 1756.33
27.15 -224.17 1756.51
27.08 -224.32 1756.62
27.16 -224.11 1756.71
27.21 -224.03 1756.51
27.21 -224.01 1756.58
24.19 -224.44 1756.52
24.20 -224.56 1756.51
24.16 -224.52 1756.61
26.79 -224.93 1756.62
26.87 -224.76 1756.51
26.80 -224.92 1756.60
24.22 -224.92 1756.67
24.32 -225.01 1756.42
24.32 -225.18 1756.52
26.62 -225.19 1756.75
26.68 -225.10 1756.66
26.79 -224.95 1756.71
26.66 -225.14 1756.69
24.30 -225.29 1756.68
26.58 -225.25 1756.84
26.54 -225.37 1756.69
26.46 -225.48 1756.91
24.39 -225.41 1756.38
24.48 -225.84 1756.62
26.55 -225.62 1756.61
24.58 -226.01 1756.64
26.71 -226.06 1756.75
26.70 -226.08 1756.61
26.71 -226.10 1756.64
24.91 -226.37 1756.64
24.93 -226.42 1756.79
26.73 -226.21 1756.62
26.74 -226.29 1756.51
25.25 -226.69 1756.54
25.18 -226.63 1756.54
25.07 -226.54 1756.78
25.43 -226.83 1756.48
26.82 -226.51 1756.50
26.93 -226.63 1756.54
27.19 -226.74 1756.48
25.56 -226.94 1756.58
25.82 -227.05 1756.62
26.02 -227.08 1756.65
26.06 -227.14 1756.48
26.23 -227.04 1756.73
26.72 -227.19 1756.49
26.51 -227.01 1756.64
26.92 -226.76 1756.59
26.95 -226.81 1756.57
27.30 -226.80 1756.40
26.19 -227.28 1756.34
26.27 -227.22 1756.41
26.31 -227.31 1756.32
26.41 -227.15 1756.51
27.11 -227.17 1756.44
27.06 -227.04 1756.47
27.27 -227.06 1756.40
27.17 -227.22 1756.42
28.12 -167.34 1756.77
28.40 -167.28 1756.73
28.46 -167.43 1756.78
27.92 -167.53 1756.82
28.13 -167.47 1756.87
28.51 -167.49 1756.83
28.64 -167.50 1756.73
28.80 -167.69 1756.72
27.58 -168.01 1757.00
27.63 -168.01 1757.04
27.69 -167.90 1756.97
27.87 -167.96 1757.14
28.89 -167.72 1756.85
28.97 -167.76 1756.90
29.21 -168.00 1756.71
29.24 -168.04 1756.66
29.40 -168.03 1756.84
26.98 -168.32 1756.89
26.93 -168.32 1756.81
26.99 -168.33 1756.91
27.07 -168.30 1756.94
29.49 -168.17 1756.72
29.58 -168.14 1756.85
29.90 -168.36 1756.80
30.04 -168.44 1756.86
30.31 -168.63 1756.75
26.01 -168.82 1756.78
26.38 -168.61 1756.91
26.13 -168.77 1756.75
26.48 -168.59 1756.85
30.39 -168.72 1756.85
25.41 -169.23 1756.87
25.54 -169.07 1756.90
25.91 -168.89 1756.75
26.12 -168.82 1756.64
30.40 -169.11 1756.87
30.55 -168.93 1756.70
25.38 -169.52 1756.79
30.18 -169.57 1756.89
30.17 -169.59 1756.82
30.28 -169.35 1756.85
30.35 -169.33 1756.65
25.56 -169.90 1756.73
25.58 -169.76 1756.64
25.52 -169.80 1756.73
25.50 -169.80 1756.76
30.13 -169.71 1756.84
30.02 -169.88 1756.69
25.71 -170.06 1756.67
29.96 -170.04 1756.88
29.96 -170.05 1756.96
24.13 -170.58 1756.96
24.15 -170.42 1757.04
24.31 -170.57 1756.94
25.77 -170.33 1756.83
25.89 -170.49 1756.80
29.81 -170.31 1756.90
29.88 -170.24 1757.07
24.11 -170.65 1756.91
24.00 -170.69 1756.91
24.53 -170.51 1757.08
24.30 -170.71 1756.89
25.42 -170.75 1757.01
25.79 -170.80 1756.81
25.81 -170.72 1756.84
25.82 -170.82 1756.79
23.57 -171.05 1756.94
23.80 -170.93 1756.81
23.85 -171.00 1756.73
24.30 -170.95 1756.84
24.11 -170.96 1756.74
25.34 -170.83 1757.02
25.40 -170.94 1756.96
25.22 -171.00 1757.04
25.65 -170.87 1756.86
25.89 -170.90 1756.72
25.79 -170.98 1756.74
26.29 -170.84 1756.56
23.25 -171.41 1756.88
23.42 -171.17 1756.97
23.64 -171.43 1756.56
23.55 -171.26 1756.71
23.43 -171.26 1756.83
23.89 -171.34 1756.61
24.29 -171.15 1756.82
24.23 -171.40 1756.76
25.46 -171.41 1756.78
25.39 -171.21 1756.88
25.30 -171.48 1756.84
25.20 -171.32 1756.95
25.53 -171.39 1756.75
25.55 -171.27 1756.78
28.32 -171.36 1756.73
22.95 -171.75 1756.82
23.17 -171.68 1756.67
23.23 -171.51 1756.74
23.03 -171.66 1756.82
23.57 -171.45 1756.58
24.32 -171.62 1756.72
25.42 -171.89 1756.71
25.35 -171.70 1756.78
25.11 -171.55 1756.93
25.12 -171.54 1756.92
27.79 -171.76 1756.69
28.08 -171.51 1756.75
22.74 -171.89 1756.97
22.79 -171.89 1756.87
23.04 -171.88 1756.66
23.23 -171.78 1756.58
24.52 -171.84 1756.69
24.58 -171.92 1756.68
24.80 -172.00 1756.82
25.47 -172.13 1756.68
25.24 -171.88 1756.80
27.55 -172.08 1756.78
27.55 -172.07 1756.75
27.70 -172.05 1756.99
27.81 -171.79 1756.77
22.70 -172.09 1756.89
22.74 -172.09 1756.83
24.92 -172.06 1756.84
25.04 -172.26 1756.74
25.00 -172.12 1756.83
25.31 -172.42 1756.66
25.25 -172.26 1756.72
27.35 -172.37 1756.74
27.53 -172.22 1756.90
22.79 -172.52 1756.72
22.83 -172.55 1756.92
25.01 -172.32 1756.69
25.30 -172.44 1756.66
25.61 -172.55 1756.63
26.02 -172.64 1756.62
27.51 -172.50 1757.11
27.53 -172.42 1757.10
27.43 -172.46 1756.95
27.53 -172.34 1757.02
27.15 -172.92 1756.90
27.33 -172.88 1757.14
27.25 -172.93 1757.06
22.97 -172.80 1756.86
22.97 -172.79 1756.80
25.84 -172.88 1756.57
26.15 -172.95 1756.55
25.93 -172.72 1756.61
26.32 -172.82 1756.57
23.13 -173.10 1756.74
23.21 -173.23 1756.70
26.89 -173.23 1756.79
26.98 -173.33 1756.98
26.89 -173.27 1756.81
23.21 -173.66 1756.85
26.72 -173.34 1756.70
26.84 -173.40 1756.88
26.76 -173.42 1756.82
26.56 -173.52 1756.68
23.10 -173.97 1756.91
23.08 -174.19 1756.90
23.17 -174.06 1756.85
25.07 -174.38 1756.66
24.56 -174.42 1756.67
24.78 -174.38 1756.62
24.54 -174.42 1756.68
25.68 -174.33 1757.22
25.67 -174.33 1757.19
25.46 -174.36 1757.04
25.60 -174.35 1757.17
25.48 -174.27 1756.72
25.49 -174.33 1756.95
25.44 -174.29 1756.77
25.82 -174.16 1756.79
23.97 -174.36 1756.59
23.96 -174.52 1756.71
24.04 -174.53 1756.72
24.30 -174.57 1756.80
24.18 -174.63 1756.85
24.36 -174.61 1756.88
24.59 -174.60 1756.98
25.50 -174.44 1757.37
25.12 -174.43 1756.88
25.06 -174.53 1757.19
24.87 -174.54 1756.98
25.21 -174.47 1757.15
21.20 -174.84 1756.95
21.10 -174.80 1756.98
21.06 -174.73 1756.99
21.29 -174.97 1756.93
21.50 -174.59 1757.01
21.39 -174.95 1756.94
21.56 -174.92 1756.94
21.64 -175.01 1756.90
21.87 -174.94 1756.91
22.75 -174.69 1756.91
22.89 -174.63 1756.90
22.93 -174.73 1756.86
23.07 -174.69 1756.85
23.34 -174.50 1756.76
23.17 -174.77 1756.81
23.70 -174.71 1756.83
23.75 -174.76 1756.86
24.00 -174.78 1756.91
21.03 -174.94 1756.97
21.09 -175.02 1756.95
20.96 -174.87 1757.00
22.07 -175.02 1756.86
22.16 -174.82 1756.94
22.41 -175.09 1756.77
22.32 -175.12 1756.77
22.70 -175.19 1756.70
22.57 -174.97 1756.81
22.77 -174.88 1756.83
23.02 -174.86 1756.82
22.98 -175.25 1756.76
23.15 -175.08 1756.85
23.43 -175.01 1756.90
23.67 -174.89 1756.92
23.38 -174.91 1756.85
23.30 -174.97 1756.86
19.74 -175.40 1756.91
20.84 -175.50 1756.90
20.84 -175.35 1756.95
20.94 -175.36 1756.92
21.64 -175.36 1756.80
21.62 -175.37 1756.80
21.72 -175.07 1756.88
22.00 -175.26 1756.78
21.91 -175.40 1756.75
21.89 -175.23 1756.81
22.36 -175.18 1756.73
22.33 -175.15 1756.75
22.87 -175.37 1756.65
19.32 -175.53 1756.91
19.20 -175.49 1756.98
19.72 -175.65 1756.77
19.51 -175.49 1756.86
19.88 -175.52 1756.85
19.90 -175.53 1756.85
20.13 -175.56 1756.91
20.33 -175.55 1757.00
20.52 -175.71 1756.93
20.54 -175.71 1756.93
21.38 -175.50 1756.81
21.51 -175.40 1756.81
21.16 -175.91 1756.77
21.42 -175.50 1756.80
21.21 -175.79 1756.78
21.04 -175.84 1756.80
21.15 -175.30 1756.88
21.07 -175.49 1756.86
22.14 -175.66 1756.63
21.97 -175.70 1756.66
21.89 -175.49 1756.72
23.01 -175.64 1756.74
23.02 -175.63 1756.74
23.03 -175.85 1756.86
18.56 -175.95 1756.98
18.71 -176.00 1756.82
18.95 -175.71 1756.87
18.79 -175.91 1756.82
19.15 -175.65 1756.87
20.03 -176.12 1756.69
19.98 -175.96 1756.72
19.91 -175.72 1756.77
19.99 -175.80 1756.76
20.36 -175.85 1756.81
21.56 -175.95 1756.71
21.40 -175.95 1756.73
21.57 -175.64 1756.76
21.68 -176.04 1756.67
21.60 -175.99 1756.69
21.76 -175.63 1756.72
22.08 -176.08 1756.59
21.92 -175.95 1756.63
22.28 -175.92 1756.56
22.62 -176.34 1756.98
22.69 -176.13 1756.74
22.74 -176.19 1756.89
22.92 -176.01 1756.86
22.84 -176.13 1756.95
16.09 -176.41 1757.00
16.24 -176.48 1756.94
18.29 -176.29 1756.93
18.41 -176.37 1756.78
18.62 -176.14 1756.80
18.61 -176.13 1756.80
18.65 -176.36 1756.67
20.51 -176.30 1756.73
20.36 -176.17 1756.74
20.63 -176.29 1756.73
20.87 -176.12 1756.75
20.88 -175.83 1756.82
20.57 -176.04 1756.78
20.59 -175.97 1756.80
21.52 -176.29 1756.66
21.50 -176.09 1756.69
21.45 -176.06 1756.70
21.57 -176.19 1756.67
22.32 -176.22 1756.59
22.36 -176.38 1756.70
22.57 -176.25 1756.79
22.51 -176.33 1756.83
14.49 -176.54 1756.70
14.85 -176.61 1756.70
15.81 -176.80 1756.93
16.01 -176.59 1756.85
16.31 -176.58 1756.83
16.47 -176.62 1756.87
16.60 -176.60 1756.94
18.03 -176.47 1756.98
17.95 -176.68 1756.85
18.31 -176.44 1756.80
18.24 -176.42 1756.86
18.60 -176.47 1756.64
18.36 -176.62 1756.68
18.72 -176.46 1756.61
20.03 -176.25 1756.67
19.93 -176.15 1756.67
19.82 -176.24 1756.64
20.19 -176.39 1756.66
20.06 -176.59 1756.61
20.18 -176.47 1756.65
20.82 -176.28 1756.72
20.92 -176.26 1756.72
20.80 -176.49 1756.69
21.29 -176.75 1756.60
21.28 -176.76 1756.61
21.14 -176.21 1756.72
21.05 -176.49 1756.68
21.43 -176.52 1756.63
21.69 -176.62 1756.65
21.43 -176.78 1756.61
22.24 -176.58 1756.81
22.24 -176.58 1756.81
13.70 -176.81 1756.89
14.03 -176.67 1756.80
14.03 -176.67 1756.81
13.83 -176.86 1756.66
14.22 -176.64 1756.61
15.12 -176.91 1756.72
14.97 -176.73 1756.76
15.61 -177.10 1756.93
15.71 -176.90 1756.91
16.72 -176.65 1756.92
16.73 -176.87 1756.77
17.34 -176.86 1756.89
17.52 -176.84 1756.88
17.68 -176.91 1756.79
17.85 -176.93 1756.71
17.90 -176.78 1756.79
17.82 -176.86 1756.77
18.24 -176.78 1756.65
20.17 -176.76 1756.59
20.20 -176.76 1756.60
20.06 -176.72 1756.58
20.48 -176.93 1756.60
20.52 -176.84 1756.62
20.84 -176.89 1756.63
20.75 -176.93 1756.62
20.65 -176.49 1756.69
21.02 -176.95 1756.60
21.07 -176.78 1756.62
21.63 -177.06 1756.82
21.74 -177.08 1756.98
21.71 -176.93 1756.79
21.79 -176.82 1756.78
21.54 -176.90 1756.66
22.09 -176.76 1756.88
22.27 -176.67 1757.02
22.52 -176.52 1757.14
21.84 -176.83 1756.84
21.99 -176.81 1756.89
13.22 -177.16 1756.87
13.31 -177.15 1756.75
13.66 -176.93 1756.70
15.16 -177.12 1756.91
15.33 -177.06 1756.79
15.54 -177.20 1756.95
16.76 -177.10 1756.69
17.09 -176.93 1756.82
16.99 -177.08 1756.73
17.29 -177.06 1756.75
17.24 -177.14 1756.70
17.65 -177.07 1756.68
17.47 -177.11 1756.70
20.57 -177.15 1756.57
20.84 -177.20 1756.58
20.67 -177.26 1756.56
12.96 -177.60 1756.59
12.81 -177.66 1756.68
12.82 -177.61 1756.76
13.12 -177.28 1756.85
13.09 -177.27 1756.91
12.85 -177.52 1756.90
12.92 -177.48 1756.84
16.14 -177.59 1756.63
16.26 -177.54 1756.63
16.73 -177.30 1756.64
16.65 -177.53 1756.60
16.91 -177.27 1756.66
20.86 -177.48 1756.72
20.69 -177.64 1756.70
20.69 -177.77 1756.96
20.86 -177.66 1756.99
21.04 -177.56 1757.08
12.63 -177.80 1756.79
16.14 -177.62 1756.64
20.47 -177.97 1756.87
20.43 -178.02 1757.03
20.60 -177.88 1757.04
20.61 -177.75 1756.73
12.64 -177.90 1756.68
12.46 -177.97 1756.88
12.54 -177.89 1756.88
12.58 -177.84 1756.89
12.32 -178.23 1756.78
19.55 -178.43 1756.93
19.52 -178.39 1756.63
19.57 -178.35 1756.51
19.65 -178.35 1756.69
20.03 -178.24 1756.71
19.87 -178.32 1756.96
19.90 -178.30 1756.84
19.78 -178.29 1756.62
20.07 -178.23 1756.79
20.16 -178.20 1757.03
20.29 -178.13 1756.79
12.19 -178.54 1756.73
12.18 -178.31 1756.84
12.26 -178.55 1756.67
12.58 -178.26 1756.54
15.48 -178.62 1756.56
18.87 -178.65 1756.71
18.95 -178.64 1756.79
19.15 -178.63 1757.22
19.20 -178.56 1756.84
11.86 -178.65 1756.97
12.01 -178.68 1756.80
12.34 -178.85 1756.70
14.73 -178.88 1756.58
18.75 -178.81 1756.87
18.78 -178.77 1756.80
18.84 -178.77 1756.98
11.99 -178.99 1756.89
12.36 -179.10 1756.91
12.29 -179.08 1756.90
12.10 -178.98 1756.84
12.71 -179.20 1756.93
12.49 -179.03 1756.82
12.54 -179.16 1756.93
12.90 -179.10 1756.77
13.13 -179.12 1756.65
13.64 -179.58 1756.89
16.25 -179.15 1756.79
16.45 -179.25 1756.81
16.39 -179.15 1756.71
18.57 -179.03 1756.89
18.48 -179.07 1756.57
18.34 -179.24 1756.62
18.40 -179.17 1756.98
18.29 -179.27 1756.90
18.39 -179.20 1756.77
18.26 -179.33 1756.61
13.09 -179.38 1756.98
13.26 -179.26 1756.75
13.31 -179.36 1756.83
13.44 -179.38 1756.77
13.82 -179.48 1756.61
15.88 -179.37 1756.69
16.14 -179.31 1756.89
15.91 -179.48 1756.73
16.62 -179.39 1756.77
16.65 -179.45 1756.81
18.13 -179.46 1756.63
18.07 -179.47 1757.05
18.22 -179.33 1756.86
17.99 -179.56 1756.95
9.85 -179.75 1757.00
10.07 -179.72 1756.98
13.87 -179.63 1756.73
13.76 -179.73 1756.96
13.98 -179.67 1756.69
13.97 -179.69 1756.73
15.91 -179.61 1756.68
16.09 -179.74 1756.75
16.15 -179.51 1756.94
16.34 -179.80 1757.04
16.19 -179.65 1756.91
16.81 -179.65 1756.82
16.84 -179.76 1756.96
17.92 -179.65 1756.81
17.78 -179.79 1756.60
9.70 -180.05 1756.84
9.49 -180.08 1756.95
9.83 -180.00 1756.87
9.81 -179.89 1756.96
13.98 -179.89 1756.92
14.34 -179.96 1756.80
14.19 -180.07 1756.95
14.08 -179.89 1756.86
14.47 -180.02 1756.81
14.53 -180.13 1756.87
14.97 -180.15 1756.70
15.03 -180.10 1756.69
15.63 -180.17 1756.49
15.36 -179.85 1756.61
15.34 -179.97 1756.61
15.95 -179.94 1756.59
16.35 -179.94 1756.97
16.17 -179.94 1756.73
17.05 -179.90 1756.71
16.96 -179.89 1756.97
17.44 -180.02 1756.83
17.18 -180.03 1756.78
17.77 -179.77 1756.86
17.80 -179.76 1756.75
17.58 -179.94 1756.94
9.42 -180.22 1756.93
9.22 -180.34 1757.00
9.40 -180.24 1756.94
9.58 -180.11 1756.88
9.81 -180.28 1756.69
9.97 -180.22 1756.70
10.18 -180.32 1756.69
10.34 -180.40 1756.78
14.75 -180.44 1756.84
14.64 -180.29 1756.87
15.00 -180.24 1756.71
16.15 -180.49 1756.82
16.16 -180.49 1756.85
16.25 -180.33 1756.80
16.33 -180.20 1756.88
10.51 -180.56 1756.76
10.63 -180.58 1756.94
10.69 -180.68 1756.93
14.78 -180.59 1756.92
15.29 -180.71 1756.91
15.18 -180.74 1757.03
14.97 -180.59 1756.86
15.42 -180.77 1757.07
15.34 -180.71 1756.90
15.31 -180.73 1756.96
15.72 -180.72 1756.94
15.78 -180.70 1756.93
9.28 -180.74 1756.90
9.32 -180.75 1756.87
9.41 -180.67 1756.82
9.37 -180.58 1756.86
9.56 -180.81 1756.72
9.57 -180.85 1756.71
9.68 -180.66 1756.66
10.89 -180.98 1756.88
10.84 -180.98 1756.69
10.82 -180.87 1756.94
9.67 -181.02 1756.65
9.35 -181.14 1756.86
9.40 -181.21 1756.84
9.68 -181.31 1756.72
11.04 -181.17 1756.75
11.01 -181.16 1756.68
9.45 -181.42 1756.87
9.32 -181.64 1756.99
9.43 -181.64 1756.95
9.88 -181.53 1756.68
9.69 -181.60 1756.82
9.62 -181.69 1756.89
9.63 -181.66 1756.87
10.01 -182.00 1756.88
9.70 -181.90 1756.97
9.85 -181.74 1756.81
10.20 -182.07 1756.81
10.15 -182.01 1756.80
10.08 -181.93 1756.79
11.34 -181.52 1756.64
11.52 -181.75 1756.58
11.59 -181.89 1756.60
11.70 -181.88 1756.83
11.67 -182.03 1756.69
10.61 -182.24 1756.73
10.44 -182.01 1756.61
11.83 -182.08 1756.99
40.18 -213.10 1756.83
40.35 -213.17 1756.74
40.32 -213.15 1756.75
40.75 -213.74 1756.88
40.74 -213.99 1757.11
38.66 -214.19 1756.64
38.75 -213.80 1756.72
38.71 -213.85 1756.66
40.89 -213.92 1756.85
40.80 -214.06 1757.07
40.82 -214.18 1757.01
40.89 -214.12 1756.88
40.92 -214.27 1756.77
38.67 -214.15 1756.84
40.85 -214.62 1756.81
40.88 -214.42 1756.83
40.91 -214.55 1756.71
40.77 -214.72 1756.90
38.93 -214.82 1756.84
39.09 -215.02 1756.95
39.16 -215.11 1757.05
39.22 -215.22 1756.88
39.27 -215.27 1757.05
40.75 -214.73 1756.92
39.64 -215.41 1756.80
25.77 -218.62 1756.89
26.07 -218.56 1756.92
25.12 -218.80 1757.02
25.15 -218.77 1757.02
25.47 -218.68 1756.92
25.44 -218.88 1756.80
25.74 -219.00 1756.64
25.62 -218.86 1756.76
25.85 -218.79 1756.78
26.24 -218.81 1756.79
26.12 -218.65 1756.87
25.22 -218.96 1756.84
24.91 -219.26 1756.88
24.93 -219.13 1756.95
25.29 -219.10 1756.70
26.70 -219.07 1756.75
26.47 -218.80 1756.84
26.57 -219.30 1756.51
26.71 -219.19 1756.68
26.83 -219.20 1756.75
24.82 -219.68 1756.68
24.99 -219.46 1756.64
25.07 -219.30 1756.70
24.70 -219.95 1756.88
24.77 -219.75 1756.71
27.45 -220.15 1756.88
27.50 -220.14 1757.07
27.52 -220.52 1756.72
24.66 -220.29 1756.90
24.66 -220.57 1756.97
24.64 -220.44 1756.81
27.61 -220.88 1756.80
27.58 -220.79 1756.73
27.58 -220.61 1756.87
24.60 -220.97 1756.90
24.61 -220.85 1756.85
24.64 -220.86 1757.07
27.65 -220.95 1757.00
24.49 -221.44 1756.68
24.52 -221.41 1756.96
27.65 -221.15 1756.85
27.68 -221.17 1757.05
27.68 -221.33 1756.82
27.67 -221.27 1756.65
27.75 -221.50 1756.61
27.80 -221.64 1756.92
27.86 -221.78 1756.67
24.30 -221.97 1756.79
27.84 -221.79 1756.91
27.95 -222.02 1756.76
24.07 -222.42 1756.99
24.21 -222.16 1756.80
27.84 -222.09 1756.90
24.03 -222.52 1756.75
24.02 -222.52 1756.98
23.93 -222.95 1756.85
23.95 -222.78 1756.88
27.35 -222.75 1757.08
27.50 -223.00 1756.63
23.92 -223.07 1756.83
23.93 -223.15 1756.91
23.92 -223.22 1756.78
23.96 -223.40 1757.01
24.06 -223.32 1757.16
27.47 -223.35 1756.63
27.48 -223.34 1756.82
23.92 -223.41 1756.80
23.94 -223.73 1756.94
23.95 -223.75 1756.96
27.35 -223.71 1756.79
27.45 -223.45 1756.78
23.95 -223.78 1756.82
24.04 -223.88 1757.08
27.28 -223.81 1756.96
27.35 -223.66 1756.94
24.07 -224.21 1756.70
24.02 -224.05 1756.96
27.12 -224.23 1756.69
27.07 -224.22 1757.13
24.10 -224.36 1756.83
27.03 -224.41 1757.08
27.04 -224.45 1756.82
27.01 -224.59 1756.92
26.99 -224.58 1756.78
24.15 -224.70 1756.81
24.16 -224.65 1756.93
26.93 -224.67 1756.62
26.96 -224.71 1756.95
24.25 -224.93 1756.98
24.28 -225.11 1756.86
26.76 -225.01 1756.84
24.38 -225.43 1756.92
24.34 -225.36 1756.82
24.35 -225.22 1757.01
24.38 -225.57 1756.73
24.38 -225.59 1756.70
26.48 -225.56 1756.88
26.62 -225.82 1756.76
24.69 -226.17 1756.79
24.62 -225.94 1756.92
26.73 -226.01 1756.82
24.76 -226.22 1756.85
26.71 -226.21 1756.94
26.75 -226.38 1756.75
26.55 -226.64 1756.91
26.67 -226.54 1756.86
26.84 -226.66 1756.65
27.01 -226.74 1756.57
25.22 -226.66 1756.75
25.08 -226.54 1756.81
25.79 -226.90 1756.87
25.63 -226.95 1756.75
25.98 -226.91 1756.90
26.28 -226.81 1756.92
26.42 -226.87 1756.82
26.24 -226.96 1756.81
26.56 -226.95 1756.64
26.58 -226.85 1756.73
28.33 -167.57 1757.00
28.39 -167.53 1756.97
28.46 -167.58 1757.01
28.64 -167.66 1757.03
28.09 -167.99 1757.28
28.29 -167.81 1757.21
28.11 -167.77 1757.12
28.43 -167.86 1757.26
29.04 -167.80 1757.16
29.20 -167.86 1757.02
29.25 -167.89 1757.22
29.22 -167.87 1757.09
29.56 -167.98 1757.09
29.63 -168.05 1757.01
29.84 -168.19 1757.00
29.96 -168.32 1756.95
30.03 -168.18 1757.19
26.63 -168.49 1756.99
26.52 -168.53 1757.13
26.86 -168.45 1757.15
27.20 -168.29 1757.10
27.32 -168.18 1756.99
26.91 -168.39 1756.96
30.24 -168.49 1757.19
30.09 -168.45 1756.95
25.95 -168.80 1756.93
25.93 -168.78 1757.14
26.05 -168.73 1757.11
26.36 -168.58 1757.19
26.65 -168.48 1756.96
30.27 -168.64 1757.07
30.28 -168.63 1757.03
25.25 -169.30 1757.01
25.65 -168.98 1756.92
30.18 -169.12 1757.21
30.25 -169.06 1757.14
30.38 -169.05 1756.95
25.11 -169.52 1757.21
25.25 -169.37 1756.95
30.15 -169.35 1757.20
30.22 -169.43 1757.02
25.14 -169.62 1757.17
25.33 -169.92 1757.03
25.31 -169.89 1757.04
25.21 -169.68 1757.07
30.07 -169.84 1757.00
25.15 -170.07 1757.31
25.18 -169.95 1757.21
25.20 -170.01 1757.21
28.32 -170.24 1757.31
28.45 -170.20 1757.38
30.05 -169.88 1757.10
30.00 -169.99 1757.22
24.12 -170.28 1757.20
23.97 -170.52 1757.34
24.16 -170.27 1757.17
24.45 -170.35 1757.11
24.59 -170.33 1757.19
24.59 -170.16 1757.30
24.73 -170.45 1757.16
25.15 -170.18 1757.29
25.09 -170.44 1757.19
25.49 -170.42 1756.99
25.39 -170.33 1757.02
25.37 -170.29 1757.03
25.69 -170.36 1756.90
28.10 -170.49 1757.33
28.08 -170.65 1757.30
28.45 -170.55 1757.26
29.85 -170.19 1757.52
29.86 -170.17 1757.45
29.82 -170.36 1757.06
29.82 -170.35 1757.07
23.92 -170.63 1757.01
23.80 -170.72 1757.22
24.58 -170.77 1757.11
24.84 -170.66 1757.19
24.76 -170.57 1757.17
25.20 -170.66 1757.10
25.01 -170.58 1757.17
25.09 -170.85 1757.12
25.35 -170.52 1757.07
25.80 -170.59 1756.90
28.23 -170.69 1757.22
28.55 -170.35 1757.37
28.66 -170.86 1757.33
29.74 -170.56 1757.21
29.61 -170.91 1757.31
29.58 -170.74 1757.02
29.60 -170.74 1757.05
29.58 -170.73 1756.99
23.58 -170.95 1757.20
23.51 -171.05 1757.06
23.75 -170.78 1757.12
24.55 -170.95 1757.06
24.88 -170.98 1757.17
25.09 -171.08 1757.08
28.06 -170.86 1757.27
28.08 -170.90 1757.25
28.21 -171.10 1757.15
28.36 -171.02 1757.12
28.54 -170.86 1757.25
29.06 -171.10 1756.96
29.08 -171.12 1757.07
23.25 -171.33 1757.11
23.29 -171.29 1757.23
24.46 -171.28 1756.95
24.81 -171.23 1757.08
25.00 -171.22 1757.08
27.92 -171.21 1757.31
28.08 -171.26 1757.17
28.18 -171.20 1757.14
28.27 -171.27 1757.04
28.60 -171.03 1757.15
28.47 -171.09 1757.09
28.49 -171.16 1756.84
28.71 -171.17 1756.85
28.73 -171.03 1757.25
28.80 -171.19 1756.98
28.60 -171.14 1756.76
22.94 -171.65 1757.19
22.83 -171.76 1757.12
23.14 -171.43 1757.31
23.09 -171.50 1757.05
24.55 -171.38 1756.98
24.60 -171.59 1756.94
24.76 -171.51 1756.98
24.66 -171.38 1757.03
27.94 -171.62 1757.11
28.06 -171.52 1757.04
22.69 -171.95 1757.04
22.78 -171.82 1757.11
22.86 -171.73 1757.46
24.96 -171.87 1756.91
24.75 -171.69 1756.92
24.87 -171.60 1756.95
27.72 -172.12 1757.43
27.71 -172.03 1757.06
27.82 -171.77 1757.30
27.81 -171.78 1757.19
22.66 -172.06 1757.17
22.72 -172.28 1757.06
22.65 -172.03 1757.28
27.70 -172.25 1757.44
22.78 -172.41 1757.06
22.82 -172.52 1756.98
22.98 -172.71 1757.24
22.90 -172.57 1757.35
27.52 -172.68 1757.35
27.52 -172.56 1757.21
22.91 -172.69 1756.99
23.00 -172.81 1757.17
23.13 -173.24 1756.94
27.07 -173.33 1757.06
27.10 -172.97 1756.84
27.33 -173.01 1757.24
27.23 -173.14 1757.13
23.09 -173.40 1757.02
23.12 -173.49 1756.97
27.04 -173.45 1757.11
26.92 -173.56 1757.20
26.73 -173.65 1757.11
26.52 -173.73 1756.92
26.50 -173.74 1756.90
26.52 -173.76 1756.98
21.25 -173.93 1757.23
22.73 -173.75 1757.27
22.96 -173.94 1757.02
22.93 -173.70 1757.14
23.07 -173.86 1756.96
26.37 -174.01 1757.30
26.39 -173.95 1757.19
26.31 -173.90 1756.92
26.49 -173.90 1757.26
26.49 -173.85 1757.13
26.68 -173.81 1757.38
21.05 -174.05 1757.19
20.96 -173.97 1757.33
20.95 -173.95 1757.35
21.26 -174.11 1757.14
21.33 -174.14 1757.13
21.67 -174.04 1757.21
21.50 -174.13 1757.15
22.05 -173.95 1757.31
22.41 -173.93 1757.30
22.26 -173.86 1757.35
22.32 -174.07 1757.25
22.62 -174.16 1757.14
22.62 -173.98 1757.21
22.86 -174.17 1757.01
22.82 -174.13 1757.05
25.91 -174.20 1757.04
26.18 -174.09 1757.10
26.21 -174.07 1757.07
20.71 -174.32 1757.26
21.10 -174.33 1757.03
21.32 -174.50 1757.02
21.38 -174.48 1757.03
21.21 -174.29 1757.05
21.49 -174.24 1757.10
21.59 -174.51 1757.04
22.10 -174.24 1757.18
22.32 -174.26 1757.17
22.17 -174.43 1757.11
22.61 -174.34 1757.06
22.69 -174.36 1757.04
22.61 -174.34 1757.06
22.93 -174.35 1756.95
20.76 -174.63 1757.10
20.71 -174.74 1757.14
20.84 -174.64 1757.05
21.00 -174.57 1757.02
21.97 -174.47 1757.10
21.85 -174.71 1757.00
22.21 -174.73 1756.97
22.39 -174.56 1757.03
22.16 -174.57 1757.05
22.46 -174.66 1756.97
22.82 -174.56 1756.95
24.22 -174.70 1756.94
24.29 -174.77 1757.15
24.46 -174.75 1757.21
24.65 -174.62 1757.06
24.35 -174.72 1757.08
24.92 -174.61 1757.42
24.82 -174.64 1757.28
20.65 -175.15 1757.12
20.55 -174.95 1757.25
20.65 -174.89 1757.18
24.12 -175.02 1757.28
24.23 -174.91 1757.27
19.53 -175.36 1757.06
19.86 -175.33 1757.10
20.12 -175.41 1757.07
20.68 -175.43 1757.04
20.60 -175.46 1757.17
23.24 -175.37 1756.89
23.23 -175.39 1756.88
23.59 -175.11 1756.98
23.41 -175.28 1756.98
23.74 -175.39 1757.18
23.71 -175.15 1757.03
23.79 -175.07 1757.04
23.84 -175.36 1757.26
18.91 -175.58 1757.17
19.05 -175.53 1757.08
19.30 -175.39 1757.14
19.53 -175.38 1757.16
20.07 -175.39 1757.24
20.00 -175.36 1757.11
20.50 -175.60 1757.27
20.37 -175.53 1757.21
20.56 -175.63 1757.29
20.59 -175.65 1757.06
20.74 -175.70 1757.23
23.27 -175.88 1757.17
23.27 -175.63 1756.98
23.11 -175.74 1756.91
23.51 -175.70 1757.21
23.54 -175.61 1757.18
18.45 -175.98 1757.23
18.57 -175.91 1757.00
18.91 -175.64 1756.97
20.78 -175.73 1757.30
22.92 -176.23 1757.19
23.04 -176.04 1757.06
23.15 -175.98 1757.10
23.05 -176.17 1757.28
16.26 -176.36 1757.10
18.23 -176.24 1757.04
18.36 -176.10 1757.26
22.64 -176.43 1757.29
14.20 -176.53 1757.09
14.43 -176.49 1756.99
14.49 -176.48 1756.98
14.52 -176.47 1757.03
14.56 -176.48 1756.90
14.68 -176.46 1757.10
14.77 -176.44 1757.33
14.93 -176.52 1757.24
15.95 -176.56 1756.97
16.05 -176.64 1757.28
16.02 -176.56 1757.15
16.48 -176.54 1757.39
16.58 -176.53 1757.41
16.76 -176.46 1757.25
16.81 -176.48 1757.23
17.00 -176.60 1757.11
17.25 -176.60 1757.23
17.94 -176.48 1757.18
17.91 -176.52 1757.06
13.38 -176.93 1757.31
13.33 -176.96 1757.28
13.67 -176.77 1757.34
13.55 -176.88 1757.05
13.32 -177.01 1757.04
13.79 -176.73 1757.09
13.75 -176.75 1757.07
14.07 -176.61 1756.91
15.10 -176.89 1756.80
15.04 -176.94 1757.07
15.00 -176.75 1756.99
15.00 -176.82 1757.16
15.67 -177.15 1757.09
15.93 -176.79 1757.21
15.79 -177.12 1757.27
16.15 -176.60 1757.28
16.96 -176.85 1756.84
17.04 -176.68 1757.00
17.41 -176.74 1757.00
17.56 -176.66 1757.12
17.54 -176.62 1757.22
21.81 -177.14 1757.27
21.50 -177.25 1756.94
21.83 -177.08 1757.12
12.96 -177.21 1757.27
15.06 -177.14 1757.21
15.11 -177.16 1757.04
15.57 -177.26 1757.04
15.66 -177.25 1757.18
21.45 -177.39 1757.29
21.43 -177.37 1757.17
12.91 -177.37 1757.05
13.01 -177.22 1757.13
13.03 -177.20 1757.13
12.65 -177.65 1757.11
12.63 -177.68 1757.06
12.78 -177.46 1757.19
15.06 -177.49 1757.33
15.26 -177.49 1757.19
15.34 -177.26 1756.97
15.42 -177.44 1757.14
15.56 -177.47 1757.25
12.52 -177.71 1757.52
12.51 -177.75 1757.20
12.57 -177.68 1757.46
20.21 -178.15 1757.37
20.24 -178.14 1757.25
20.38 -178.01 1757.77
20.52 -177.97 1757.19
20.43 -178.03 1757.15
12.46 -177.89 1756.97
12.22 -178.16 1756.98
12.21 -178.10 1757.09
12.51 -177.80 1757.00
12.27 -177.92 1757.40
12.37 -177.84 1757.34
12.24 -178.00 1757.22
12.07 -178.33 1757.00
11.99 -178.38 1757.06
19.16 -178.63 1757.24
19.55 -178.47 1757.19
19.42 -178.53 1757.23
19.41 -178.52 1757.13
19.38 -178.49 1756.84
11.80 -178.47 1757.28
11.82 -178.59 1757.16
11.93 -178.44 1757.08
11.88 -178.61 1756.98
18.74 -178.88 1757.12
18.92 -178.78 1757.21
18.88 -178.80 1757.20
10.87 -179.23 1757.23
11.59 -178.76 1757.25
11.68 -179.19 1757.22
11.76 -178.82 1757.06
12.15 -179.28 1757.13
11.83 -179.07 1757.03
12.31 -179.21 1757.03
16.18 -179.24 1756.90
16.37 -179.29 1756.95
18.64 -178.99 1757.50
18.49 -179.10 1757.34
18.58 -179.01 1757.27
9.99 -179.45 1757.34
9.87 -179.52 1757.27
10.01 -179.43 1757.34
10.19 -179.33 1757.31
10.26 -179.28 1757.31
10.36 -179.30 1757.24
10.73 -179.46 1757.13
10.64 -179.45 1757.11
10.86 -179.23 1757.23
11.15 -179.20 1757.26
11.00 -179.45 1757.21
12.44 -179.44 1757.21
12.81 -179.31 1757.01
12.60 -179.45 1757.18
12.53 -179.31 1757.07
12.88 -179.42 1757.08
16.37 -179.45 1757.19
16.55 -179.47 1757.09
18.00 -179.47 1757.19
18.06 -179.42 1757.17
9.64 -179.73 1757.21
9.67 -179.67 1757.27
9.76 -179.62 1757.23
10.27 -179.51 1757.06
10.52 -179.80 1757.08
10.52 -179.76 1757.07
10.79 -179.57 1757.15
10.86 -179.67 1757.19
11.14 -179.50 1757.25
11.02 -179.58 1757.23
12.72 -179.61 1757.25
12.96 -179.56 1757.15
12.80 -179.44 1757.12
12.98 -179.77 1757.29
13.06 -179.73 1757.24
13.50 -179.82 1757.20
13.33 -179.69 1757.15
13.27 -179.57 1757.07
13.47 -179.66 1757.06
16.23 -179.50 1757.08
16.36 -179.64 1757.20
16.81 -179.82 1757.21
17.87 -179.60 1757.20
9.41 -179.86 1757.31
9.50 -179.88 1757.17
9.50 -180.01 1757.01
10.27 -180.00 1756.96
10.37 -179.94 1757.01
10.68 -180.00 1757.15
10.49 -180.03 1757.05
10.93 -179.95 1757.26
13.76 -179.95 1757.16
13.87 -179.93 1757.05
16.46 -179.85 1757.22
16.52 -180.04 1757.23
16.37 -180.08 1756.94
17.02 -180.04 1757.16
17.35 -180.06 1757.12
17.59 -179.92 1757.07
17.62 -179.88 1757.14
17.38 -180.07 1757.23
8.95 -180.08 1757.28
9.14 -180.03 1757.30
9.26 -179.85 1757.43
9.25 -180.23 1757.04
9.44 -180.04 1757.04
9.39 -179.87 1757.32
10.08 -180.08 1756.85
10.38 -180.23 1756.97
10.65 -180.32 1757.08
10.89 -180.49 1757.20
10.81 -180.40 1757.17
13.89 -180.19 1757.21
13.90 -180.32 1757.27
14.21 -180.25 1757.06
14.32 -180.39 1757.21
14.33 -180.27 1757.03
14.16 -180.39 1757.24
14.43 -180.30 1757.03
14.52 -180.40 1757.00
16.35 -180.27 1757.03
16.39 -180.14 1756.94
17.22 -180.12 1757.21
8.95 -180.43 1757.10
8.80 -180.33 1757.17
11.01 -180.79 1757.22
10.96 -180.54 1757.24
10.64 -180.53 1757.01
14.13 -180.51 1757.33
14.61 -180.61 1757.10
14.62 -180.63 1757.15
14.72 -180.63 1756.99
14.98 -180.74 1757.09
15.54 -180.79 1757.30
15.70 -180.76 1757.16
15.81 -180.73 1757.14
15.84 -180.69 1756.97
16.03 -180.62 1756.98
9.12 -180.48 1757.03
9.02 -180.68 1757.02
9.07 -180.84 1756.97
10.96 -180.97 1757.03
9.11 -181.03 1756.95
9.00 -180.99 1757.00
8.79 -181.11 1757.10
8.92 -181.18 1757.04
8.91 -181.33 1757.06
9.19 -181.40 1756.97
9.10 -181.37 1757.00
11.04 -180.95 1757.14
11.03 -181.06 1756.97
11.12 -181.19 1756.87
11.30 -181.29 1756.93
11.43 -181.37 1756.97
8.91 -181.48 1757.10
8.92 -181.46 1757.09
11.54 -181.53 1756.92
11.43 -181.54 1756.78
11.60 -181.50 1757.03
11.85 -181.80 1757.16
11.86 -181.75 1757.22
9.14 -181.85 1757.12
9.03 -181.61 1757.09
9.25 -182.01 1757.16
9.13 -182.02 1757.19
9.44 -181.88 1757.05
11.84 -181.90 1757.04
11.88 -181.83 1757.19
11.91 -182.01 1757.06
9.04 -182.02 1757.21
9.60 -182.10 1757.12
10.01 -182.37 1757.20
9.98 -182.25 1757.09
9.76 -182.09 1757.05
10.36 -182.30 1756.94
10.28 -182.36 1757.07
10.11 -182.26 1757.04
10.40 -182.28 1756.90
10.44 -182.33 1756.97
11.49 -182.28 1757.02
11.66 -182.24 1757.10
11.71 -182.22 1757.13
12.11 -182.08 1757.30
39.73 -213.09 1756.93
40.00 -213.14 1757.32
39.66 -213.12 1757.05
40.11 -213.12 1757.00
40.03 -213.11 1757.17
40.43 -213.33 1757.19
40.17 -213.20 1757.39
40.43 -213.35 1757.24
38.83 -213.57 1757.05
38.80 -213.52 1757.19
38.89 -213.44 1757.13
38.91 -213.40 1757.17
39.24 -213.23 1757.12
39.35 -213.17 1757.11
40.55 -213.46 1757.28
40.57 -213.43 1757.08
40.49 -213.30 1756.86
40.62 -213.65 1757.32
40.60 -213.50 1757.14
40.69 -213.79 1756.99
40.62 -213.57 1757.05
40.63 -213.51 1756.89
38.65 -214.24 1757.28
38.65 -214.11 1757.09
38.65 -214.35 1757.29
38.70 -213.96 1756.92
38.69 -213.84 1757.09
40.71 -214.26 1757.18
40.75 -214.50 1757.03
38.82 -214.67 1757.03
38.94 -214.84 1757.17
39.04 -214.96 1757.21
38.89 -214.76 1757.03
38.94 -214.85 1757.31
38.71 -214.59 1757.49
39.14 -215.10 1757.30
38.87 -214.77 1757.36
39.11 -215.10 1757.63
39.23 -215.17 1757.14
39.63 -215.28 1757.12
39.36 -215.24 1757.12
39.78 -215.36 1756.97
40.39 -214.99 1757.18
40.44 -215.08 1757.01
40.05 -215.22 1757.16
40.60 -214.84 1757.10
39.47 -215.44 1756.98
26.05 -216.28 1757.32
26.47 -216.29 1757.24
26.52 -216.08 1757.30
26.63 -216.27 1757.26
26.64 -216.31 1757.25
26.22 -216.72 1757.24
26.02 -216.42 1757.31
26.32 -216.62 1757.23
25.86 -216.60 1757.33
25.93 -216.38 1757.33
26.00 -216.78 1757.28
26.46 -216.89 1757.22
26.36 -216.72 1757.23
26.84 -216.45 1757.28
26.82 -216.31 1757.28
26.86 -216.73 1757.27
26.71 -216.54 1757.25
26.86 -216.79 1757.27
26.35 -216.99 1757.23
26.44 -217.17 1757.24
26.47 -217.18 1757.24
26.75 -217.14 1757.26
25.22 -218.29 1757.26
25.81 -218.18 1757.11
25.71 -218.03 1757.18
25.53 -218.22 1757.16
25.43 -218.05 1757.28
25.85 -217.92 1757.20
25.95 -218.06 1757.14
26.16 -218.23 1757.09
26.20 -218.29 1757.08
26.28 -218.24 1757.10
26.43 -218.11 1757.16
26.74 -218.03 1757.26
26.70 -218.26 1757.18
26.96 -218.26 1757.27
25.09 -218.46 1757.26
25.17 -218.34 1757.27
25.24 -218.59 1757.08
25.36 -218.33 1757.17
25.67 -218.53 1756.96
25.54 -218.55 1756.98
26.34 -218.50 1756.98
26.38 -218.37 1757.05
26.13 -218.49 1756.96
26.79 -218.44 1757.14
26.53 -218.69 1756.93
26.57 -218.58 1756.99
26.68 -218.41 1757.12
27.11 -218.53 1757.28
27.12 -218.60 1757.26
24.83 -218.76 1757.36
24.87 -218.66 1757.35
24.99 -218.60 1757.25
24.92 -218.53 1757.35
26.68 -218.80 1756.94
26.80 -218.87 1756.94
26.86 -218.96 1756.92
27.02 -218.67 1757.17
27.22 -218.88 1757.23
24.79 -219.21 1757.16
24.79 -219.20 1757.17
24.87 -219.33 1756.87
27.13 -219.28 1756.95
27.13 -219.02 1757.09
26.92 -219.11 1756.88
27.29 -219.18 1757.18
24.74 -219.58 1757.00
24.74 -219.51 1757.27
