29.99 -194.56 1731.18
30.07 -194.72 1731.20
30.05 -194.85 1731.18
30.23 -194.70 1731.25
28.91 -194.21 1730.96
28.67 -194.41 1730.92
28.74 -194.46 1730.93
29.52 -194.09 1731.11
29.27 -194.26 1731.04
29.36 -194.29 1731.05
29.33 -194.37 1731.04
29.62 -194.33 1731.10
29.42 -194.11 1731.09
34.21 -193.90 1731.13
34.39 -193.98 1730.88
34.24 -193.95 1731.10
34.26 -194.03 1731.09
28.79 -194.50 1730.93
28.83 -194.63 1730.91
34.18 -194.05 1731.20
34.39 -194.37 1730.97
34.12 -194.15 1731.28
34.23 -194.13 1731.15
34.12 -194.06 1731.27
34.45 -194.95 1730.92
34.43 -194.73 1730.93
29.05 -194.74 1730.92
29.34 -194.49 1731.02
29.34 -194.68 1730.99
29.22 -194.50 1730.99
29.22 -194.70 1730.96
29.34 -194.69 1730.99
29.03 -194.93 1730.89
29.51 -195.22 1730.97
29.59 -194.92 1731.02
29.46 -194.86 1731.00
29.72 -195.15 1731.03
29.51 -195.10 1730.99
29.71 -195.38 1731.00
29.45 -194.93 1730.99
29.15 -195.15 1730.89
29.77 -195.15 1731.05
29.86 -194.81 1731.11
29.77 -195.19 1731.04
29.89 -195.20 1731.08
30.15 -195.12 1731.19
30.11 -195.28 1731.15
30.13 -195.34 1731.15
30.20 -195.35 1731.18
30.19 -195.21 1731.19
34.36 -195.20 1730.99
34.28 -195.20 1731.08
34.33 -195.02 1731.05
29.06 -195.31 1730.83
29.46 -195.48 1730.92
29.23 -195.37 1730.87
29.58 -195.45 1730.96
30.02 -195.60 1731.08
29.96 -195.65 1731.05
30.17 -195.90 1731.10
34.24 -195.51 1731.08
34.39 -195.75 1730.92
29.55 -196.03 1730.83
29.57 -195.62 1730.92
29.44 -195.77 1730.85
29.87 -195.84 1730.99
29.85 -195.78 1731.00
29.66 -195.91 1730.90
29.62 -196.02 1730.86
30.43 -196.16 1731.19
30.39 -195.97 1731.22
30.28 -195.88 1731.18
34.00 -196.07 1731.13
34.04 -196.23 1731.05
34.09 -196.32 1730.99
33.83 -196.00 1731.25
33.91 -196.23 1731.12
33.96 -196.41 1731.01
34.33 -196.24 1730.84
34.43 -196.07 1730.82
29.84 -196.24 1730.90
29.74 -196.13 1730.89
30.04 -196.15 1731.00
29.93 -196.19 1730.95
30.07 -196.47 1730.91
30.33 -196.33 1731.08
30.21 -196.09 1731.08
30.50 -196.40 1731.15
30.67 -196.49 1731.16
33.81 -196.88 1730.92
33.84 -196.74 1730.95
33.87 -196.66 1730.97
33.96 -196.49 1730.98
33.95 -196.49 1730.99
30.86 -196.82 1731.05
30.72 -196.73 1731.05
30.68 -196.72 1731.04
30.59 -196.77 1730.99
31.31 -196.78 1731.18
31.74 -196.96 1731.14
31.34 -196.93 1731.10
32.72 -196.73 1731.27
33.34 -196.55 1731.22
32.88 -197.13 1731.05
32.92 -197.20 1731.00
32.74 -196.94 1731.17
32.78 -196.95 1731.15
33.11 -196.93 1731.09
33.16 -197.01 1731.04
33.23 -196.86 1731.10
33.42 -196.61 1731.17
33.03 -197.23 1730.97
33.04 -197.15 1731.00
33.26 -197.07 1730.98
33.45 -196.80 1731.07
30.67 -197.00 1730.92
30.79 -197.05 1730.93
31.14 -197.11 1730.98
31.65 -197.28 1730.98
31.72 -197.22 1731.02
31.11 -197.08 1730.99
31.73 -197.20 1731.03
31.17 -197.08 1731.00
31.09 -197.14 1730.96
31.15 -197.20 1730.94
31.47 -197.49 1730.86
32.58 -197.33 1730.96
31.98 -197.06 1731.10
32.33 -197.27 1730.99
32.18 -197.26 1731.00
31.98 -197.30 1730.98
32.19 -197.50 1730.88
32.18 -197.17 1731.05
32.67 -197.36 1730.94
32.36 -197.50 1730.88
32.30 -196.93 1731.17
32.34 -196.80 1731.25
32.35 -197.00 1731.13
32.66 -196.90 1731.20
32.45 -196.92 1731.18
32.36 -196.79 1731.25
32.25 -196.93 1731.17
52.99 -203.72 1731.08
52.80 -203.75 1731.19
53.29 -203.70 1731.03
53.32 -203.50 1731.14
53.10 -203.82 1730.99
53.10 -203.58 1731.13
53.62 -203.53 1731.24
53.60 -203.70 1731.10
53.56 -203.42 1731.28
52.89 -203.87 1731.05
52.61 -204.07 1731.12
53.70 -203.91 1730.96
54.05 -204.16 1731.00
54.07 -204.20 1730.98
53.92 -203.97 1731.32
54.02 -204.10 1731.30
52.55 -204.36 1730.99
52.50 -204.41 1731.03
52.68 -204.15 1731.02
54.35 -204.41 1730.97
54.36 -204.44 1731.19
54.16 -204.25 1731.13
54.13 -204.21 1731.31
52.35 -204.85 1731.09
52.49 -204.58 1730.99
54.78 -204.77 1730.89
54.51 -204.59 1731.19
54.65 -204.73 1731.13
52.33 -205.19 1731.12
52.35 -205.22 1731.09
54.88 -205.05 1731.13
54.95 -205.12 1731.09
55.01 -205.06 1730.93
52.45 -205.35 1730.92
55.12 -205.41 1731.06
54.97 -205.19 1731.13
52.49 -205.80 1731.19
52.48 -205.61 1730.99
52.56 -205.72 1730.92
55.18 -205.69 1731.11
55.17 -205.92 1731.19
55.27 -205.54 1730.96
52.57 -205.90 1731.16
52.70 -206.07 1730.97
55.33 -206.28 1731.15
55.16 -206.03 1731.24
55.30 -205.89 1731.07
55.30 -205.86 1731.07
55.54 -206.27 1731.03
55.48 -206.31 1731.07
55.69 -206.17 1730.93
55.80 -206.24 1730.91
53.18 -206.40 1731.21
53.07 -206.36 1731.11
52.79 -206.18 1731.10
55.21 -206.44 1731.24
53.07 -206.45 1730.89
53.17 -206.45 1731.07
53.43 -206.53 1731.21
53.34 -206.53 1731.14
54.01 -207.00 1730.87
53.63 -206.80 1730.92
54.12 -206.88 1731.12
53.94 -206.87 1731.04
55.36 -206.44 1731.14
55.31 -206.48 1731.17
55.08 -206.94 1731.18
55.57 -206.44 1731.04
55.66 -206.44 1731.00
55.69 -206.69 1731.00
55.70 -206.74 1731.00
56.04 -206.36 1730.82
55.89 -206.47 1730.89
56.02 -206.80 1730.86
55.98 -206.61 1730.86
54.48 -207.13 1730.95
54.23 -207.00 1731.00
54.61 -207.19 1730.95
54.64 -206.99 1731.16
54.62 -206.94 1731.21
54.83 -206.97 1731.19
55.03 -207.19 1730.99
54.95 -207.08 1731.08
55.22 -207.21 1730.99
55.13 -206.95 1731.16
55.50 -206.86 1731.06
55.45 -206.97 1731.04
55.74 -207.30 1730.88
55.69 -207.25 1730.90
56.02 -206.91 1730.86
55.83 -207.06 1730.90
71.45 -211.91 1731.24
71.92 -211.79 1731.22
71.91 -211.78 1731.23
71.77 -211.99 1731.13
72.23 -212.01 1731.13
72.30 -211.91 1731.20
72.29 -212.07 1731.09
72.66 -212.10 1731.12
71.59 -212.21 1731.12
71.45 -212.03 1731.20
71.77 -212.33 1731.04
72.08 -212.27 1730.97
71.83 -212.26 1731.06
71.71 -212.17 1731.10
72.41 -212.28 1730.91
72.26 -212.40 1730.87
72.31 -212.32 1730.90
72.63 -212.35 1730.85
72.60 -212.16 1731.03
72.94 -212.22 1731.07
73.18 -212.29 1731.05
71.58 -212.69 1731.02
71.62 -212.54 1731.02
71.42 -212.56 1731.13
71.83 -212.72 1730.88
71.73 -212.67 1730.94
73.51 -212.37 1731.04
73.80 -212.42 1730.99
73.99 -212.45 1730.97
74.22 -212.44 1730.84
74.26 -212.67 1731.16
74.22 -212.62 1731.14
71.41 -212.92 1731.10
71.69 -212.82 1730.94
71.38 -213.11 1731.16
71.33 -213.01 1731.17
71.22 -212.86 1731.23
71.45 -213.35 1731.16
71.23 -213.29 1731.33
71.52 -213.35 1731.10
71.26 -213.36 1731.34
74.93 -213.29 1731.05
75.24 -213.51 1730.87
74.90 -213.64 1731.18
74.90 -213.61 1731.18
71.57 -213.66 1731.20
71.64 -213.63 1731.12
71.70 -213.81 1731.19
71.83 -213.78 1731.02
65.70 -214.09 1731.08
65.61 -213.89 1731.18
66.23 -214.20 1730.92
66.07 -213.94 1731.08
66.29 -214.22 1730.90
65.85 -214.07 1731.06
65.91 -214.06 1731.06
66.44 -214.02 1731.03
66.31 -214.14 1730.95
71.93 -213.99 1731.10
71.99 -213.89 1730.93
71.91 -213.90 1731.04
75.19 -213.97 1731.07
75.06 -213.97 1731.15
75.14 -213.92 1731.10
65.51 -214.16 1731.12
65.53 -214.43 1731.06
65.99 -214.39 1730.88
65.98 -214.27 1730.94
66.50 -214.14 1730.96
66.52 -214.12 1730.97
66.48 -214.19 1730.93
66.80 -214.01 1731.11
66.97 -214.21 1730.99
67.12 -214.21 1731.04
67.39 -214.16 1731.22
67.34 -214.22 1731.13
67.59 -214.38 1731.10
67.62 -214.47 1731.03
67.78 -214.48 1731.12
67.62 -214.30 1731.20
75.18 -214.55 1731.05
75.18 -214.31 1731.10
75.20 -214.47 1731.06
75.33 -214.09 1731.01
75.41 -214.23 1730.96
65.71 -214.46 1730.95
65.74 -214.36 1730.98
65.64 -214.74 1730.87
67.94 -214.60 1731.11
67.85 -214.62 1731.02
68.06 -214.81 1731.02
72.75 -214.77 1731.11
72.62 -214.64 1730.98
72.82 -214.80 1731.14
72.95 -214.83 1731.24
75.13 -214.84 1731.02
75.17 -214.70 1731.03
75.50 -214.82 1730.86
75.38 -214.91 1730.89
75.50 -214.79 1730.86
65.36 -214.90 1731.19
65.51 -214.68 1730.99
68.23 -215.04 1731.04
68.06 -214.94 1730.88
73.29 -214.86 1731.22
73.13 -214.85 1731.25
73.21 -214.91 1731.03
73.19 -214.91 1731.02
73.56 -214.94 1731.12
73.98 -215.12 1730.90
73.99 -214.98 1731.09
74.00 -215.04 1731.02
73.78 -215.03 1730.95
74.20 -214.93 1731.18
74.78 -215.07 1731.02
74.87 -214.80 1731.11
74.86 -214.75 1731.14
74.73 -215.12 1731.01
75.34 -215.06 1730.87
74.94 -215.06 1730.98
74.90 -214.99 1731.02
74.99 -214.85 1731.06
75.17 -215.19 1730.87
75.20 -215.24 1730.85
65.46 -215.17 1731.14
65.62 -215.42 1730.93
65.61 -215.39 1730.93
68.29 -215.27 1731.06
68.28 -215.43 1731.20
68.34 -215.52 1731.00
74.64 -215.23 1730.93
65.85 -215.89 1730.89
65.74 -215.78 1731.11
65.62 -215.59 1731.14
68.26 -215.56 1731.29
68.32 -215.67 1731.18
68.49 -215.83 1730.94
66.14 -216.34 1730.92
65.96 -216.06 1730.89
66.16 -216.37 1730.98
66.09 -216.28 1731.15
68.43 -216.22 1731.17
68.46 -215.94 1731.04
68.43 -216.28 1731.18
68.60 -216.47 1731.04
68.71 -216.42 1730.93
66.48 -216.82 1730.91
66.40 -216.68 1731.13
66.38 -216.65 1731.03
66.41 -216.68 1731.13
68.58 -216.62 1731.11
66.65 -217.16 1730.85
66.67 -217.19 1730.88
66.62 -217.03 1731.04
68.63 -217.04 1731.09
68.52 -217.24 1731.12
68.71 -216.98 1731.03
68.78 -217.06 1730.92
66.84 -217.39 1731.02
66.89 -217.53 1730.93
68.43 -217.43 1731.13
68.66 -217.22 1731.05
68.68 -217.51 1730.94
67.15 -217.77 1730.87
67.59 -217.86 1730.95
67.19 -217.82 1730.85
67.36 -217.81 1730.92
68.28 -217.64 1731.09
68.58 -217.66 1731.01
68.65 -217.71 1730.92
67.87 -217.93 1730.96
67.92 -217.92 1730.96
68.39 -217.95 1730.97
68.27 -217.88 1731.01
57.46 -161.64 1731.33
57.70 -161.54 1731.29
57.62 -161.52 1731.27
57.76 -161.33 1731.19
57.85 -161.40 1731.24
58.05 -161.59 1731.32
58.29 -161.40 1731.23
58.37 -161.52 1731.23
58.50 -161.50 1731.18
56.84 -162.02 1731.35
56.78 -161.85 1731.21
57.16 -161.87 1731.37
57.49 -161.95 1731.45
57.64 -162.00 1731.48
57.34 -161.68 1731.31
57.23 -161.94 1731.43
57.73 -161.79 1731.41
57.83 -161.66 1731.37
58.00 -161.86 1731.38
58.13 -161.88 1731.36
58.33 -161.74 1731.28
58.20 -161.59 1731.30
56.54 -162.17 1731.28
56.68 -162.24 1731.41
56.64 -162.13 1731.33
56.96 -162.17 1731.47
58.02 -162.19 1731.43
57.80 -162.08 1731.46
58.04 -162.22 1731.42
58.09 -162.22 1731.40
58.43 -162.17 1731.23
58.63 -161.70 1731.15
58.57 -162.14 1731.16
58.45 -161.77 1731.23
58.37 -161.96 1731.26
56.23 -162.53 1731.26
56.45 -162.49 1731.39
56.42 -162.47 1731.37
56.56 -162.49 1731.44
56.69 -162.52 1731.51
56.81 -162.40 1731.52
58.12 -162.48 1731.42
58.37 -162.40 1731.28
58.18 -162.55 1731.39
58.62 -162.43 1731.14
58.31 -162.62 1731.33
58.39 -162.70 1731.28
56.08 -162.93 1731.33
56.31 -162.80 1731.42
56.82 -162.84 1731.62
56.72 -162.71 1731.56
58.37 -162.93 1731.30
58.22 -162.92 1731.39
58.47 -162.97 1731.21
58.33 -162.98 1731.32
56.05 -163.06 1731.35
55.95 -163.26 1731.35
58.37 -163.14 1731.28
58.30 -163.17 1731.33
55.71 -163.41 1731.19
55.95 -163.42 1731.42
56.03 -163.40 1731.47
58.51 -163.36 1731.17
58.27 -163.43 1731.38
58.20 -163.30 1731.42
58.34 -163.52 1731.34
58.38 -163.73 1731.35
55.72 -163.70 1731.34
55.65 -163.95 1731.35
58.47 -163.80 1731.30
58.26 -163.81 1731.47
58.45 -164.02 1731.36
58.44 -163.88 1731.34
55.62 -164.27 1731.41
55.70 -164.23 1731.49
58.56 -164.55 1731.23
58.39 -164.26 1731.49
58.48 -164.18 1731.36
58.33 -164.71 1731.62
58.36 -164.86 1731.58
58.42 -164.99 1731.49
58.43 -164.74 1731.46
58.56 -164.97 1731.09
58.49 -164.99 1731.37
58.49 -165.20 1731.34
58.48 -165.14 1731.37
58.52 -165.51 1731.16
58.52 -165.57 1731.19
58.56 -165.17 1730.93
58.54 -165.31 1731.06
55.36 -165.79 1731.19
55.51 -165.51 1731.43
58.51 -165.65 1731.19
58.52 -165.62 1731.08
58.52 -165.62 1730.81
58.53 -165.53 1730.70
58.52 -165.60 1730.87
58.56 -166.49 1731.15
58.54 -166.31 1730.98
58.54 -166.23 1730.93
58.56 -166.50 1731.16
58.52 -165.96 1730.99
58.55 -166.32 1731.09
55.32 -166.38 1731.30
55.33 -166.39 1731.32
55.37 -166.06 1731.31
55.48 -165.70 1731.42
55.50 -165.79 1731.50
55.25 -166.73 1731.24
55.31 -166.84 1731.42
55.32 -166.79 1731.42
55.26 -167.16 1731.31
55.26 -166.94 1731.33
55.28 -167.29 1731.35
55.25 -167.30 1731.22
58.67 -167.56 1731.49
58.66 -167.52 1731.34
55.36 -167.72 1731.48
55.38 -167.91 1731.32
55.39 -167.99 1731.36
55.41 -168.35 1731.33
55.50 -168.36 1731.61
55.47 -168.21 1731.64
55.48 -168.28 1731.65
58.67 -168.11 1731.45
58.67 -168.15 1731.44
58.67 -168.15 1731.34
58.67 -167.98 1731.42
55.41 -168.62 1731.55
58.71 -168.79 1731.53
58.70 -168.72 1731.68
58.69 -168.47 1731.36
58.69 -168.57 1731.38
58.70 -168.72 1731.65
58.67 -168.25 1731.24
58.72 -169.05 1731.63
58.79 -169.03 1731.44
58.76 -168.59 1731.12
58.77 -168.70 1731.20
58.87 -169.23 1731.24
58.87 -169.19 1731.37
54.76 -169.65 1731.22
54.78 -169.62 1731.37
55.11 -169.30 1731.44
54.98 -169.43 1731.50
54.95 -169.55 1730.96
58.86 -169.35 1731.33
58.79 -169.72 1731.44
58.79 -169.59 1731.20
54.65 -169.75 1731.44
54.72 -169.66 1731.47
58.76 -169.77 1731.39
54.60 -169.84 1731.52
54.52 -170.08 1731.43
58.68 -169.96 1731.27
58.65 -170.13 1731.28
54.46 -170.52 1731.64
54.45 -170.47 1731.60
54.34 -170.54 1731.40
58.61 -170.34 1731.37
54.17 -170.92 1731.24
54.25 -170.79 1731.42
54.36 -170.73 1731.62
58.48 -170.69 1731.23
58.41 -170.92 1731.52
54.16 -171.15 1731.37
58.35 -171.14 1731.51
58.37 -171.06 1731.52
58.38 -171.03 1731.44
58.25 -171.48 1731.46
53.86 -171.66 1731.19
53.90 -171.79 1731.28
54.10 -171.59 1731.47
58.33 -171.37 1731.29
58.24 -171.74 1731.33
58.07 -171.93 1731.56
58.15 -171.87 1731.44
53.89 -171.97 1731.31
58.17 -172.01 1731.28
58.07 -172.03 1731.46
58.16 -172.12 1731.16
58.21 -171.99 1731.21
58.06 -172.24 1731.21
57.43 -172.87 1731.40
57.54 -172.82 1731.34
57.40 -172.92 1731.38
57.59 -172.66 1731.46
57.33 -172.82 1731.54
57.48 -172.66 1731.57
57.91 -172.56 1731.10
57.80 -172.67 1731.16
57.73 -172.70 1731.25
53.59 -172.98 1731.27
53.59 -172.79 1731.05
53.66 -172.97 1731.36
53.73 -172.85 1731.40
53.77 -172.75 1731.40
53.48 -173.36 1731.39
53.63 -173.07 1731.43
53.58 -173.25 1731.51
56.97 -173.35 1731.51
56.75 -173.48 1731.63
57.02 -173.42 1731.41
56.91 -173.25 1731.64
56.81 -173.39 1731.63
57.47 -173.11 1731.15
57.36 -173.10 1731.28
57.41 -173.13 1731.21
57.20 -173.17 1731.40
57.30 -173.22 1731.25
57.12 -172.89 1731.69
53.24 -173.88 1731.27
53.10 -173.90 1731.05
53.26 -173.80 1731.25
56.77 -173.82 1731.38
56.68 -173.81 1731.48
56.80 -174.12 1731.15
56.90 -173.86 1731.23
56.83 -174.02 1731.19
53.40 -174.19 1731.48
53.36 -174.20 1731.45
53.23 -174.07 1731.32
53.21 -174.24 1731.33
53.40 -173.86 1731.42
56.51 -174.24 1731.40
56.56 -174.18 1731.38
56.71 -174.24 1731.17
53.12 -174.59 1731.44
53.07 -174.54 1731.35
53.13 -174.52 1731.41
53.22 -174.37 1731.39
53.39 -174.40 1731.55
56.09 -175.03 1731.45
56.30 -174.72 1731.28
52.91 -174.89 1731.30
53.03 -174.79 1731.42
56.14 -175.05 1731.38
56.34 -174.95 1731.09
52.74 -175.55 1731.31
52.81 -175.33 1731.30
56.12 -175.24 1731.22
56.15 -175.38 1731.03
55.97 -175.42 1731.39
56.01 -175.42 1731.29
52.77 -175.87 1731.46
52.77 -175.69 1731.40
52.66 -175.66 1731.21
56.03 -175.65 1731.04
52.50 -176.08 1731.20
52.52 -175.80 1731.04
52.58 -175.74 1731.12
52.73 -175.96 1731.45
55.94 -175.79 1731.16
55.84 -176.07 1731.27
52.57 -176.17 1731.35
52.66 -176.10 1731.42
55.81 -176.48 1731.16
55.71 -176.33 1731.37
55.78 -176.59 1731.17
52.43 -176.28 1731.12
52.50 -176.27 1731.26
55.59 -176.55 1731.50
55.62 -176.74 1731.39
55.66 -176.78 1731.31
55.76 -176.75 1731.16
55.68 -176.93 1731.26
52.29 -177.08 1731.30
52.30 -176.96 1731.28
52.30 -177.35 1731.40
52.37 -177.03 1731.37
55.59 -177.16 1731.32
55.59 -177.12 1731.33
55.35 -177.58 1731.25
55.22 -177.84 1731.09
55.34 -177.48 1731.44
55.24 -177.76 1731.19
55.43 -177.45 1731.28
55.45 -177.67 1730.86
55.57 -177.39 1731.08
55.45 -177.44 1731.27
55.59 -177.41 1731.01
52.15 -177.40 1731.27
52.02 -177.72 1731.28
52.24 -177.61 1731.44
52.22 -177.89 1731.49
55.12 -178.08 1731.15
55.11 -178.06 1731.16
52.12 -178.09 1731.46
51.99 -177.88 1731.31
51.83 -178.00 1731.22
51.92 -177.87 1731.25
55.14 -178.11 1731.11
55.04 -178.24 1731.14
51.78 -178.19 1731.23
51.95 -178.34 1731.40
51.96 -178.34 1731.40
51.99 -178.51 1731.45
54.59 -178.67 1731.30
54.48 -178.69 1731.39
54.60 -178.52 1731.41
54.80 -178.49 1731.22
51.75 -178.56 1731.29
51.70 -178.69 1731.29
51.94 -178.98 1731.46
52.02 -178.95 1731.50
54.66 -178.68 1731.23
54.68 -178.65 1731.23
54.81 -178.58 1731.15
51.71 -179.36 1731.36
51.75 -179.22 1731.37
51.66 -179.24 1731.32
51.58 -179.41 1731.28
51.66 -179.29 1731.33
54.45 -179.04 1731.23
54.33 -178.89 1731.42
54.16 -179.28 1731.37
52.01 -179.38 1731.49
51.98 -179.29 1731.48
54.03 -179.56 1731.36
54.15 -179.32 1731.37
51.58 -179.55 1731.28
51.40 -179.50 1731.17
51.59 -179.50 1731.29
51.68 -179.76 1731.33
51.59 -179.87 1731.27
51.80 -180.02 1731.35
51.86 -179.71 1731.41
51.88 -179.80 1731.41
52.13 -179.65 1731.51
52.18 -179.97 1731.46
52.12 -179.77 1731.49
53.73 -179.71 1731.49
53.80 -179.83 1731.40
53.98 -179.77 1731.29
53.99 -179.97 1731.16
51.80 -180.16 1731.34
51.71 -180.34 1731.29
51.82 -180.40 1731.30
51.87 -180.43 1731.31
51.99 -180.43 1731.33
52.08 -180.25 1731.39
52.07 -180.11 1731.41
52.26 -180.26 1731.42
52.35 -179.98 1731.50
52.45 -180.29 1731.44
52.23 -180.62 1731.34
52.46 -180.50 1731.40
53.43 -180.28 1731.34
53.35 -180.11 1731.43
53.49 -180.20 1731.36
53.39 -180.17 1731.40
53.52 -180.25 1731.33
53.54 -180.26 1731.32
53.85 -180.23 1731.10
53.48 -180.35 1731.30
52.62 -180.68 1731.33
52.52 -180.85 1731.26
52.59 -180.59 1731.37
52.69 -180.42 1731.42
52.94 -180.25 1731.45
52.63 -180.58 1731.37
44.07 -186.44 1731.50
44.71 -186.34 1731.32
44.56 -186.42 1731.53
43.96 -186.47 1731.46
45.12 -186.45 1731.41
44.76 -186.30 1731.21
45.08 -186.52 1731.53
44.86 -186.42 1731.42
44.83 -186.43 1731.46
45.34 -186.54 1731.46
45.55 -186.51 1731.33
45.30 -186.37 1731.25
45.71 -186.64 1731.39
46.06 -186.77 1731.36
45.81 -186.65 1731.34
46.09 -186.66 1731.26
45.96 -186.57 1731.23
46.24 -186.69 1731.25
46.01 -187.01 1731.54
46.25 -186.99 1731.43
46.22 -187.01 1731.46
46.36 -187.32 1731.50
46.42 -187.37 1731.48
46.67 -187.23 1731.32
46.49 -187.37 1731.45
46.68 -187.23 1731.31
46.78 -187.29 1731.27
46.68 -187.58 1731.33
46.66 -187.50 1731.35
42.89 -187.67 1731.36
42.79 -187.92 1731.35
43.21 -187.27 1731.15
42.99 -187.81 1731.11
42.97 -187.71 1731.21
43.19 -187.34 1731.11
46.48 -187.68 1731.50
46.66 -187.86 1731.37
46.44 -187.53 1731.52
46.52 -187.67 1731.46
42.70 -188.18 1731.42
42.84 -188.13 1731.16
42.87 -188.07 1731.13
46.73 -188.24 1731.23
46.79 -188.29 1731.16
46.53 -188.12 1731.47
46.59 -188.04 1731.42
42.71 -188.51 1731.35
42.64 -188.36 1731.54
42.60 -188.47 1731.63
46.66 -188.42 1731.28
46.63 -188.40 1731.32
46.64 -188.45 1731.30
42.68 -188.90 1731.40
42.68 -188.76 1731.42
46.40 -188.78 1731.51
46.49 -188.62 1731.45
46.45 -188.58 1731.51
42.70 -189.02 1731.38
42.80 -189.13 1731.28
42.70 -189.18 1731.43
46.48 -189.05 1731.33
46.41 -189.11 1731.41
42.76 -189.35 1731.43
42.80 -189.37 1731.38
42.99 -189.45 1731.16
42.99 -189.47 1731.17
43.07 -189.44 1731.08
46.30 -189.51 1731.33
46.47 -189.24 1731.27
46.58 -189.51 1731.03
46.35 -189.46 1731.30
43.14 -189.83 1731.34
43.05 -189.78 1731.38
43.34 -189.94 1731.26
43.47 -190.09 1731.39
43.43 -190.08 1731.40
43.44 -190.15 1731.49
43.87 -190.15 1731.19
44.06 -190.25 1731.30
44.15 -190.25 1731.21
44.29 -190.29 1731.46
44.21 -190.29 1731.30
44.54 -190.31 1731.43
44.35 -190.30 1731.34
31.23 -191.88 1731.44
31.30 -191.87 1731.60
31.51 -191.65 1731.52
31.51 -191.66 1731.73
32.10 -191.70 1731.64
32.08 -191.70 1731.64
31.98 -191.69 1731.55
31.92 -191.57 1731.19
31.68 -191.60 1731.24
32.08 -191.65 1731.37
32.16 -191.66 1731.28
32.35 -191.77 1731.32
32.16 -191.72 1731.61
32.49 -191.86 1731.32
32.55 -191.88 1731.19
30.65 -192.52 1731.42
30.65 -192.27 1731.29
30.75 -192.50 1731.47
30.98 -192.27 1731.57
31.15 -191.99 1731.57
31.14 -192.00 1731.61
30.41 -192.53 1731.32
33.29 -192.58 1731.55
33.08 -192.40 1731.65
33.12 -192.38 1731.40
33.04 -192.36 1731.63
30.48 -192.63 1731.40
30.30 -192.60 1731.30
30.30 -192.67 1731.32
30.46 -192.97 1731.50
30.30 -192.93 1731.40
33.07 -192.30 1731.28
33.30 -192.55 1731.37
33.42 -192.71 1731.51
33.37 -192.65 1731.43
33.23 -192.49 1731.40
29.80 -193.39 1731.28
29.80 -193.17 1731.23
30.09 -193.31 1731.38
29.87 -193.31 1731.29
30.46 -193.14 1731.54
30.33 -193.37 1731.50
30.47 -193.01 1731.52
33.59 -192.91 1731.50
33.73 -193.07 1731.43
33.91 -193.43 1731.38
33.99 -193.62 1731.30
33.94 -193.48 1731.49
30.06 -193.47 1731.38
29.72 -193.63 1731.20
29.56 -193.51 1731.16
29.48 -193.47 1731.13
30.23 -193.53 1731.44
30.07 -193.57 1731.36
30.23 -193.91 1731.36
30.15 -194.03 1731.29
30.23 -193.56 1731.43
30.15 -193.66 1731.38
34.02 -193.71 1731.56
30.40 -194.05 1731.46
34.00 -193.71 1731.69
34.00 -193.75 1731.70
30.27 -194.67 1731.28
30.33 -194.28 1731.33
30.38 -194.21 1731.42
33.99 -194.24 1731.64
30.27 -194.89 1731.29
30.34 -195.02 1731.41
34.02 -194.35 1731.53
34.16 -194.67 1731.26
34.05 -194.58 1731.51
34.07 -194.48 1731.45
34.03 -194.57 1731.55
34.09 -194.85 1731.35
33.97 -194.88 1731.54
34.00 -194.84 1731.50
34.17 -195.02 1731.23
34.01 -195.16 1731.41
34.07 -195.02 1731.35
33.94 -195.21 1731.46
33.95 -195.44 1731.37
30.28 -195.36 1731.25
30.34 -195.56 1731.29
30.29 -195.37 1731.26
30.37 -195.46 1731.38
33.67 -195.88 1731.41
33.83 -195.92 1731.29
33.44 -195.85 1731.56
33.96 -195.53 1731.33
33.95 -195.64 1731.30
33.89 -195.87 1731.26
33.93 -195.91 1731.22
30.41 -195.77 1731.34
30.38 -195.71 1731.34
30.53 -196.20 1731.26
33.46 -196.29 1731.31
33.71 -195.97 1731.33
33.44 -196.23 1731.35
33.47 -196.15 1731.38
33.56 -196.01 1731.41
30.96 -196.49 1731.32
31.03 -196.41 1731.44
30.67 -196.19 1731.40
31.27 -196.54 1731.39
31.28 -196.58 1731.35
31.52 -196.57 1731.40
31.39 -196.47 1731.51
31.66 -196.43 1731.63
31.95 -196.40 1731.64
31.80 -196.57 1731.47
31.86 -196.45 1731.61
31.78 -196.49 1731.58
32.65 -196.29 1731.62
33.04 -196.14 1731.57
32.74 -196.24 1731.62
33.31 -196.27 1731.40
33.23 -196.42 1731.33
31.73 -196.94 1731.16
31.66 -196.90 1731.17
31.34 -196.76 1731.21
31.71 -196.82 1731.24
32.47 -196.36 1731.60
32.51 -196.54 1731.44
32.28 -196.56 1731.43
32.48 -196.41 1731.55
31.82 -196.87 1731.22
31.89 -196.86 1731.23
32.12 -196.80 1731.25
31.95 -196.72 1731.32
32.81 -196.37 1731.50
32.87 -196.44 1731.42
33.21 -196.53 1731.26
33.08 -196.41 1731.39
33.01 -196.42 1731.40
53.06 -203.40 1731.27
53.20 -203.38 1731.24
53.41 -203.17 1731.35
53.49 -203.18 1731.40
52.59 -203.68 1731.48
52.59 -203.71 1731.44
52.79 -203.60 1731.31
53.56 -203.36 1731.47
53.72 -203.68 1731.21
52.57 -203.74 1731.44
52.45 -203.92 1731.49
52.67 -203.80 1731.26
52.59 -203.90 1731.29
53.90 -203.92 1731.46
52.27 -204.60 1731.44
52.32 -204.55 1731.28
52.37 -204.25 1731.34
54.26 -204.36 1731.50
54.32 -204.44 1731.56
54.34 -204.45 1731.49
52.31 -204.76 1731.23
54.43 -204.60 1731.61
54.46 -204.62 1731.51
54.60 -204.74 1731.34
54.52 -204.67 1731.39
52.31 -205.08 1731.17
52.33 -204.88 1731.12
54.69 -204.82 1731.25
54.62 -204.83 1731.45
54.75 -205.02 1731.35
52.35 -205.48 1731.30
52.30 -205.28 1731.29
54.98 -205.51 1731.28
54.88 -205.31 1731.32
54.88 -205.47 1731.40
52.39 -205.60 1731.28
52.54 -205.78 1731.46
54.95 -205.64 1731.36
55.10 -205.90 1731.26
52.54 -205.88 1731.27
52.80 -206.07 1731.31
54.99 -206.01 1731.40
55.11 -206.08 1731.29
52.79 -206.10 1731.27
52.86 -206.04 1731.41
53.00 -206.09 1731.47
53.18 -206.31 1731.33
53.10 -206.14 1731.48
53.33 -206.21 1731.51
54.92 -206.49 1731.40
55.11 -206.35 1731.32
53.50 -206.37 1731.43
53.56 -206.32 1731.51
53.77 -206.48 1731.42
53.78 -206.52 1731.38
54.25 -206.70 1731.34
54.25 -206.57 1731.44
54.02 -206.75 1731.23
54.27 -206.85 1731.22
54.52 -206.58 1731.45
54.54 -206.81 1731.30
54.61 -206.82 1731.31
55.01 -206.71 1731.29
55.01 -206.62 1731.32
54.89 -206.79 1731.29
71.00 -211.69 1731.44
71.08 -211.56 1731.47
71.47 -211.57 1731.35
71.30 -211.38 1731.47
71.79 -211.67 1731.28
71.85 -211.62 1731.32
71.75 -211.39 1731.44
72.28 -211.63 1731.41
72.13 -211.53 1731.43
70.90 -211.77 1731.45
70.91 -212.06 1731.42
71.01 -212.04 1731.38
71.00 -211.71 1731.43
71.32 -211.94 1731.26
71.39 -211.86 1731.27
72.13 -211.79 1731.23
72.42 -211.85 1731.27
72.45 -211.79 1731.34
72.73 -211.99 1731.28
72.81 -211.90 1731.45
70.90 -212.19 1731.41
71.25 -212.25 1731.24
71.42 -212.23 1731.17
71.14 -212.29 1731.29
72.95 -212.14 1731.21
73.12 -212.20 1731.23
73.27 -212.29 1731.11
73.55 -212.35 1731.28
73.43 -212.33 1731.19
70.95 -212.46 1731.36
71.00 -212.41 1731.34
71.11 -212.52 1731.28
71.45 -212.46 1731.13
73.66 -212.40 1731.29
73.79 -212.44 1731.22
74.07 -212.58 1731.24
73.91 -212.53 1731.35
64.97 -212.95 1731.50
65.23 -213.19 1731.42
74.61 -213.03 1731.17
74.53 -213.22 1731.33
74.44 -212.95 1731.26
64.70 -213.37 1731.49
64.97 -213.30 1731.42
64.68 -213.26 1731.51
64.45 -213.27 1731.55
64.43 -213.03 1731.56
65.41 -213.20 1731.40
65.36 -213.32 1731.36
65.45 -213.35 1731.34
65.56 -213.17 1731.41
65.93 -213.36 1731.38
65.76 -213.52 1731.30
65.58 -213.17 1731.42
71.23 -213.43 1731.41
74.81 -213.24 1731.12
74.75 -213.38 1731.22
74.64 -213.42 1731.31
65.12 -213.72 1731.32
64.78 -213.54 1731.44
64.78 -213.57 1731.44
64.89 -213.69 1731.40
64.56 -213.68 1731.54
64.72 -213.78 1731.49
64.63 -213.77 1731.52
64.83 -213.73 1731.44
65.17 -213.71 1731.32
65.37 -213.68 1731.28
65.45 -213.61 1731.28
65.84 -213.68 1731.22
66.06 -213.73 1731.19
66.37 -213.72 1731.21
66.32 -213.67 1731.24
66.32 -213.58 1731.29
66.58 -213.75 1731.24
66.58 -213.75 1731.24
71.36 -213.67 1731.51
71.49 -213.69 1731.32
74.13 -213.35 1731.64
73.89 -213.37 1731.80
74.16 -213.63 1731.64
74.59 -213.57 1731.38
74.48 -213.37 1731.41
74.59 -213.55 1731.37
74.43 -213.65 1731.48
65.02 -214.18 1731.37
65.11 -214.18 1731.32
65.00 -214.17 1731.38
65.58 -213.68 1731.25
65.49 -213.99 1731.18
65.38 -213.80 1731.25
65.21 -214.08 1731.27
65.23 -214.28 1731.25
66.97 -213.99 1731.18
67.00 -213.84 1731.33
67.24 -213.75 1731.54
66.98 -213.74 1731.41
67.32 -214.09 1731.25
67.21 -213.95 1731.34
67.46 -213.88 1731.54
67.47 -213.93 1731.49
71.72 -213.93 1731.38
71.70 -213.92 1731.39
71.88 -214.02 1731.22
71.80 -214.02 1731.40
74.47 -214.09 1731.43
74.34 -213.89 1731.52
74.34 -213.99 1731.51
74.41 -213.79 1731.49
74.66 -213.98 1731.33
74.94 -214.00 1731.21
74.97 -213.94 1731.20
65.40 -214.28 1731.15
65.43 -214.28 1731.13
67.75 -214.15 1731.43
67.85 -214.29 1731.36
67.77 -214.31 1731.28
68.01 -214.34 1731.41
72.09 -214.30 1731.41
72.31 -214.46 1731.19
72.08 -214.18 1731.13
72.02 -214.24 1731.43
74.39 -214.60 1731.34
74.59 -214.56 1731.29
74.59 -214.63 1731.27
74.64 -214.21 1731.35
74.79 -214.41 1731.25
74.83 -214.45 1731.23
65.12 -214.59 1731.41
64.89 -214.30 1731.48
64.94 -214.35 1731.46
65.24 -214.86 1731.35
65.19 -214.50 1731.29
65.39 -214.67 1731.14
65.38 -214.75 1731.15
68.18 -214.53 1731.39
68.15 -214.54 1731.36
68.26 -214.61 1731.42
72.49 -214.65 1731.21
72.21 -214.40 1731.33
72.69 -214.74 1731.31
72.57 -214.70 1731.17
72.96 -214.81 1731.35
72.69 -214.71 1731.43
72.99 -214.74 1731.52
73.73 -214.82 1731.30
74.11 -214.82 1731.26
74.19 -214.77 1731.29
73.94 -214.72 1731.37
73.88 -214.81 1731.31
74.54 -214.70 1731.25
74.53 -214.67 1731.27
65.24 -214.95 1731.44
65.37 -215.12 1731.37
68.25 -214.81 1731.31
68.23 -214.85 1731.29
74.41 -214.90 1731.18
65.38 -215.05 1731.23
65.44 -215.22 1731.22
68.25 -215.27 1731.44
65.79 -215.86 1731.29
65.77 -215.83 1731.23
65.68 -215.69 1731.43
65.48 -215.40 1731.48
65.73 -215.76 1731.38
68.20 -215.57 1731.45
65.93 -216.06 1731.30
65.86 -215.96 1731.41
65.96 -216.05 1731.50
66.03 -216.14 1731.47
68.16 -215.99 1731.46
68.30 -216.12 1731.29
66.40 -216.43 1731.55
66.24 -216.38 1731.42
68.14 -216.45 1731.41
68.03 -216.62 1731.42
68.02 -216.29 1731.53
68.26 -216.42 1731.31
68.42 -216.54 1731.21
66.45 -216.58 1731.37
66.45 -216.74 1731.17
66.59 -216.75 1731.33
66.52 -216.58 1731.46
67.40 -216.82 1731.54
67.55 -217.11 1731.39
67.54 -217.00 1731.44
67.64 -216.79 1731.50
67.86 -216.92 1731.42
68.00 -217.19 1731.29
67.90 -217.11 1731.34
68.02 -216.74 1731.39
67.97 -216.89 1731.39
68.08 -216.81 1731.36
68.37 -216.97 1731.23
68.17 -217.06 1731.27
68.26 -216.60 1731.31
68.51 -216.81 1731.16
68.63 -216.80 1731.10
66.75 -217.05 1731.20
66.72 -216.99 1731.22
67.18 -217.05 1731.41
67.03 -217.00 1731.40
67.03 -217.12 1731.33
66.92 -217.17 1731.25
66.86 -217.05 1731.31
67.47 -217.24 1731.33
67.57 -217.34 1731.28
67.21 -217.28 1731.27
67.33 -217.27 1731.29
68.34 -217.17 1731.20
67.58 -217.38 1731.26
67.46 -217.62 1731.09
67.35 -217.42 1731.20
67.75 -217.42 1731.24
67.96 -217.40 1731.22
68.08 -217.61 1731.13
67.68 -217.47 1731.21
67.72 -217.55 1731.17
67.72 -217.74 1731.05
67.65 -217.47 1731.21
68.33 -217.47 1731.14
56.95 -162.25 1731.50
57.18 -162.27 1731.54
57.21 -162.27 1731.54
57.56 -162.02 1731.48
57.71 -162.23 1731.51
57.64 -162.23 1731.52
56.96 -162.54 1731.59
57.04 -162.49 1731.59
57.44 -162.36 1731.58
57.39 -162.55 1731.61
57.68 -162.49 1731.56
57.78 -162.46 1731.53
57.82 -162.58 1731.54
57.96 -162.57 1731.49
56.45 -162.95 1731.54
56.55 -162.99 1731.58
56.49 -163.05 1731.58
57.20 -162.79 1731.65
57.14 -162.99 1731.67
57.06 -162.77 1731.64
57.35 -162.86 1731.66
57.57 -162.80 1731.63
57.56 -162.83 1731.63
57.94 -162.79 1731.52
58.14 -162.75 1731.44
58.00 -162.80 1731.50
56.21 -163.16 1731.49
56.18 -163.31 1731.53
56.31 -163.29 1731.58
56.69 -163.14 1731.66
56.77 -163.34 1731.74
56.89 -163.23 1731.73
56.84 -163.35 1731.76
57.05 -163.03 1731.68
57.28 -163.10 1731.71
57.31 -163.16 1731.72
57.54 -163.25 1731.70
57.69 -163.24 1731.66
57.97 -163.16 1731.52
57.84 -163.12 1731.58
56.32 -163.71 1731.73
56.24 -163.58 1731.66
56.37 -163.46 1731.66
56.11 -163.53 1731.58
56.60 -163.50 1731.75
56.65 -163.48 1731.76
56.87 -163.67 1731.85
56.83 -163.57 1731.82
57.29 -163.66 1731.85
57.52 -163.42 1731.73
57.18 -163.40 1731.78
56.99 -163.42 1731.79
57.61 -163.62 1731.78
57.59 -163.77 1731.83
57.85 -163.47 1731.62
57.92 -163.41 1731.58
57.80 -163.48 1731.64
57.83 -163.58 1731.66
58.08 -163.65 1731.56
55.91 -163.69 1731.51
55.80 -163.92 1731.52
55.97 -164.00 1731.66
56.23 -163.90 1731.77
56.23 -163.84 1731.74
57.84 -163.92 1731.78
57.92 -164.00 1731.77
58.00 -163.96 1731.71
58.01 -163.90 1731.69
55.85 -164.26 1731.67
55.90 -164.10 1731.65
58.09 -164.09 1731.69
58.09 -164.13 1731.70
58.39 -164.38 1731.51
55.71 -164.50 1731.57
55.81 -164.62 1731.69
58.15 -164.41 1731.76
55.73 -164.90 1731.64
55.72 -164.78 1731.61
55.69 -165.16 1731.63
55.67 -164.68 1731.54
55.74 -165.21 1731.70
55.77 -165.21 1731.73
55.83 -165.23 1731.82
58.28 -165.28 1731.78
58.29 -165.36 1731.78
58.36 -165.23 1731.63
58.39 -165.23 1731.57
58.37 -165.34 1731.61
58.43 -165.42 1731.47
55.64 -165.48 1731.64
55.67 -165.68 1731.76
58.41 -165.66 1731.56
58.38 -165.79 1731.73
58.34 -165.63 1731.75
55.65 -165.72 1731.74
55.64 -165.64 1731.69
58.52 -166.24 1731.49
58.49 -166.02 1731.52
58.57 -166.49 1731.39
58.53 -165.99 1731.35
58.56 -166.54 1731.46
55.49 -165.92 1731.52
55.43 -166.28 1731.50
55.51 -166.07 1731.59
58.50 -166.52 1731.69
58.53 -166.56 1731.60
58.56 -166.74 1731.56
55.37 -166.88 1731.55
55.40 -166.72 1731.56
55.55 -166.37 1731.72
55.45 -166.38 1731.57
55.32 -167.13 1731.50
55.58 -167.00 1731.84
55.52 -167.01 1731.78
55.40 -166.99 1731.63
55.39 -167.23 1731.62
55.49 -167.70 1731.73
55.45 -167.62 1731.68
55.42 -167.50 1731.63
55.58 -167.59 1731.87
55.59 -167.29 1731.88
58.58 -167.15 1731.66
58.57 -167.49 1731.85
58.54 -166.90 1731.71
58.51 -166.77 1731.78
58.63 -167.24 1731.52
58.61 -167.39 1731.68
58.59 -167.30 1731.68
55.40 -167.71 1731.58
55.41 -167.87 1731.59
55.48 -167.94 1731.75
58.66 -167.95 1731.66
58.63 -167.60 1731.71
58.67 -167.63 1731.43
58.67 -167.64 1731.51
55.36 -168.80 1731.57
55.44 -168.65 1731.67
58.72 -169.10 1731.72
58.68 -168.46 1731.71
58.67 -168.48 1731.73
58.69 -168.87 1731.75
55.33 -168.90 1731.55
55.26 -169.04 1731.53
58.81 -169.60 1731.47
54.65 -169.81 1731.62
58.74 -169.41 1731.66
58.73 -169.84 1731.64
58.73 -169.54 1731.66
54.54 -170.09 1731.57
54.60 -169.92 1731.59
58.68 -170.23 1731.69
58.70 -170.16 1731.50
58.63 -170.36 1731.65
58.52 -170.55 1731.72
58.62 -170.14 1731.85
58.66 -170.29 1731.52
54.33 -170.85 1731.65
58.48 -170.65 1731.72
58.36 -170.77 1731.86
58.35 -170.86 1731.78
54.17 -171.26 1731.45
54.33 -171.16 1731.60
54.42 -171.11 1731.67
54.55 -171.10 1731.77
58.18 -171.28 1731.75
58.30 -171.24 1731.55
54.73 -171.17 1731.95
54.54 -171.34 1731.82
54.56 -171.36 1731.86
54.57 -171.23 1731.81
54.50 -171.48 1731.84
58.11 -171.62 1731.63
58.01 -171.59 1731.79
54.23 -171.62 1731.62
54.14 -171.81 1731.60
54.16 -171.85 1731.64
54.37 -171.82 1731.81
57.96 -171.89 1731.71
58.01 -171.97 1731.62
58.08 -171.85 1731.59
54.31 -172.29 1731.83
54.15 -172.15 1731.69
54.13 -172.16 1731.68
54.02 -172.27 1731.58
53.89 -172.20 1731.37
57.82 -172.32 1731.56
57.87 -172.17 1731.62
57.29 -172.74 1731.67
57.70 -172.45 1731.56
57.66 -172.36 1731.67
53.85 -172.52 1731.46
53.85 -172.34 1731.37
54.03 -172.76 1731.71
54.10 -172.38 1731.69
54.09 -172.51 1731.72
53.80 -172.86 1731.54
53.82 -173.06 1731.64
53.95 -173.06 1731.76
53.83 -173.19 1731.69
53.66 -173.33 1731.61
54.13 -173.12 1731.84
56.63 -173.61 1731.63
56.44 -173.46 1731.77
56.85 -173.25 1731.69
56.82 -173.32 1731.67
53.60 -173.34 1731.56
53.64 -173.64 1731.59
53.68 -173.57 1731.63
53.92 -173.43 1731.79
55.94 -173.79 1731.84
55.87 -173.83 1731.85
56.05 -173.82 1731.81
56.35 -173.73 1731.72
56.44 -173.66 1731.70
56.57 -174.02 1731.47
56.47 -173.94 1731.58
56.46 -173.85 1731.62
53.65 -173.89 1731.64
53.69 -174.13 1731.71
53.68 -174.08 1731.70
55.79 -174.02 1731.84
55.73 -174.12 1731.84
55.93 -174.06 1731.79
56.07 -174.12 1731.72
55.84 -174.25 1731.77
55.84 -174.36 1731.74
56.13 -174.41 1731.59
56.21 -174.43 1731.55
56.21 -174.12 1731.66
55.45 -175.09 1731.83
55.57 -175.12 1731.80
55.68 -174.68 1731.79
55.68 -175.01 1731.78
55.82 -174.68 1731.73
55.80 -174.83 1731.75
55.69 -174.53 1731.79
56.03 -174.77 1731.60
56.06 -175.00 1731.50
53.34 -174.87 1731.65
53.06 -174.90 1731.45
55.77 -175.10 1731.75
55.77 -175.16 1731.75
55.97 -175.10 1731.58
53.05 -175.51 1731.59
53.06 -175.36 1731.53
53.18 -175.15 1731.56
53.30 -175.22 1731.67
53.06 -175.25 1731.49
53.12 -175.10 1731.50
55.91 -175.29 1731.59
55.98 -175.24 1731.51
53.14 -175.60 1731.66
52.86 -175.62 1731.50
55.65 -175.49 1731.75
55.41 -175.37 1731.82
55.66 -175.63 1731.70
55.72 -175.43 1731.72
53.14 -175.64 1731.66
53.18 -175.67 1731.68
53.17 -175.60 1731.68
53.10 -175.79 1731.66
55.05 -176.30 1731.79
55.04 -176.28 1731.80
55.11 -175.95 1731.83
55.17 -176.24 1731.76
55.18 -175.87 1731.82
55.30 -175.59 1731.82
55.86 -175.69 1731.44
55.73 -175.79 1731.55
52.94 -176.52 1731.62
52.79 -176.55 1731.54
52.99 -176.48 1731.65
52.81 -176.00 1731.53
52.89 -176.10 1731.58
55.55 -175.96 1731.68
55.55 -176.04 1731.66
55.52 -176.09 1731.66
55.55 -175.94 1731.68
55.29 -176.22 1731.72
55.64 -176.18 1731.53
55.70 -175.99 1731.49
55.14 -176.64 1731.71
55.23 -176.69 1731.67
54.89 -176.54 1731.81
55.50 -176.75 1731.57
54.98 -176.70 1731.78
55.21 -176.91 1731.70
54.96 -176.78 1731.80
52.86 -177.15 1731.72
52.88 -177.45 1731.74
52.88 -177.23 1731.73
53.05 -176.98 1731.76
52.96 -177.21 1731.75
53.04 -176.51 1731.68
52.77 -177.19 1731.68
52.86 -176.83 1731.65
52.87 -177.11 1731.71
52.65 -177.15 1731.59
52.56 -176.66 1731.43
52.69 -177.20 1731.63
52.64 -177.36 1731.63
52.58 -177.28 1731.58
52.51 -176.87 1731.45
55.19 -177.10 1731.73
55.40 -177.19 1731.56
55.40 -177.12 1731.58
54.94 -177.27 1731.79
55.07 -177.14 1731.78
55.12 -177.42 1731.70
55.15 -177.47 1731.66
55.27 -177.43 1731.57
54.96 -177.94 1731.47
55.18 -177.67 1731.45
52.41 -177.70 1731.57
52.37 -177.71 1731.55
52.60 -177.65 1731.67
52.56 -177.96 1731.69
52.79 -177.60 1731.74
52.77 -177.67 1731.74
54.70 -177.60 1731.81
54.78 -177.60 1731.80
54.73 -177.75 1731.76
54.92 -177.56 1731.75
54.75 -177.85 1731.70
54.88 -178.00 1731.50
52.61 -178.08 1731.70
52.88 -177.87 1731.78
52.75 -177.94 1731.75
54.47 -177.96 1731.77
52.63 -178.52 1731.71
52.37 -178.14 1731.61
52.46 -178.42 1731.66
52.26 -178.34 1731.58
52.28 -178.55 1731.61
52.78 -178.53 1731.72
52.65 -178.52 1731.72
53.13 -178.32 1731.76
53.98 -178.67 1731.69
53.89 -178.76 1731.68
54.32 -178.11 1731.76
53.94 -178.74 1731.67
54.47 -178.13 1731.70
54.22 -178.55 1731.60
54.46 -178.31 1731.59
54.25 -178.45 1731.64
52.11 -178.74 1731.53
52.36 -178.80 1731.63
52.17 -178.85 1731.57
52.86 -178.54 1731.73
52.99 -178.50 1731.74
52.60 -178.88 1731.68
52.59 -178.84 1731.69
53.26 -178.45 1731.76
52.82 -179.17 1731.67
53.18 -178.90 1731.71
53.14 -178.59 1731.74
53.27 -178.68 1731.74
52.80 -178.90 1731.69
53.43 -178.35 1731.77
53.56 -178.73 1731.71
53.60 -178.51 1731.74
53.16 -179.12 1731.68
53.63 -178.58 1731.72
53.68 -178.90 1731.67
53.33 -178.87 1731.71
53.68 -178.70 1731.70
53.91 -178.48 1731.73
53.96 -178.28 1731.77
53.94 -178.32 1731.76
54.00 -178.12 1731.80
53.87 -178.59 1731.71
54.43 -178.44 1731.53
54.74 -178.20 1731.46
54.41 -178.65 1731.47
54.18 -178.75 1731.55
52.57 -179.11 1731.66
52.14 -178.99 1731.55
52.87 -179.31 1731.65
52.70 -179.67 1731.59
52.78 -179.22 1731.66
52.54 -179.74 1731.56
54.04 -178.96 1731.56
54.29 -178.83 1731.47
54.14 -179.03 1731.50
52.36 -179.32 1731.60
52.47 -179.13 1731.63
52.13 -179.45 1731.53
52.47 -179.39 1731.61
52.38 -179.53 1731.57
52.24 -179.50 1731.55
52.20 -179.51 1731.55
53.03 -179.31 1731.66
52.95 -179.89 1731.53
52.96 -179.45 1731.63
52.72 -179.85 1731.55
52.89 -179.70 1731.58
53.13 -179.80 1731.55
53.21 -179.32 1731.64
53.39 -179.41 1731.60
53.23 -179.53 1731.59
53.50 -179.29 1731.61
53.13 -179.69 1731.57
53.52 -179.33 1731.60
53.69 -179.23 1731.61
53.10 -180.07 1731.49
53.21 -179.95 1731.51
53.82 -179.26 1731.59
53.79 -179.31 1731.59
53.85 -179.40 1731.55
52.59 -180.13 1731.49
52.63 -180.22 1731.47
52.70 -180.35 1731.44
52.64 -180.12 1731.49
44.22 -186.51 1731.66
44.19 -186.62 1731.84
44.28 -186.66 1731.86
44.58 -186.45 1731.60
44.50 -186.59 1731.75
44.56 -186.51 1731.67
43.51 -186.82 1731.59
43.83 -186.64 1731.66
43.89 -186.60 1731.64
44.08 -186.64 1731.81
44.74 -186.92 1732.06
44.91 -186.78 1731.88
44.72 -186.87 1732.02
44.87 -186.82 1731.92
44.75 -186.50 1731.65
44.65 -186.66 1731.84
44.74 -186.67 1731.82
45.12 -186.66 1731.70
45.19 -186.77 1731.77
45.28 -186.72 1731.68
43.46 -186.89 1731.66
43.39 -187.00 1731.74
43.61 -186.86 1731.82
45.62 -186.88 1731.67
45.71 -186.99 1731.69
45.70 -186.85 1731.59
45.96 -187.04 1731.59
45.96 -187.03 1731.58
42.95 -187.52 1731.47
43.03 -187.37 1731.73
43.21 -187.19 1731.34
43.17 -187.22 1731.55
43.29 -187.10 1731.23
42.99 -187.47 1731.47
45.88 -187.24 1731.77
46.19 -187.25 1731.58
46.24 -187.42 1731.62
42.80 -187.73 1731.54
42.89 -187.60 1731.41
46.14 -187.71 1731.81
46.05 -187.58 1731.82
46.35 -187.77 1731.63
46.32 -187.69 1731.65
46.28 -187.93 1731.72
42.66 -188.03 1731.65
42.67 -187.96 1731.73
46.27 -188.04 1731.74
46.15 -188.14 1731.88
46.41 -188.41 1731.57
46.22 -188.46 1731.83
46.23 -188.35 1731.82
42.56 -188.71 1731.69
42.59 -189.01 1731.61
46.26 -188.81 1731.72
46.39 -188.64 1731.57
42.61 -189.17 1731.56
42.56 -189.20 1731.64
46.23 -189.18 1731.63
46.17 -188.98 1731.78
46.33 -189.08 1731.52
42.67 -189.43 1731.56
42.51 -189.53 1731.76
42.61 -189.28 1731.57
46.17 -189.38 1731.58
46.00 -189.57 1731.69
45.95 -189.62 1731.73
45.70 -189.62 1732.05
45.93 -189.60 1731.76
45.91 -189.41 1731.91
42.83 -189.69 1731.48
42.65 -189.65 1731.66
42.80 -189.96 1731.67
42.80 -189.98 1731.68
43.13 -189.92 1731.43
45.88 -189.69 1731.73
45.74 -190.13 1731.20
45.83 -189.74 1731.72
46.16 -189.69 1731.34
45.89 -189.99 1731.22
45.84 -189.77 1731.66
45.89 -189.88 1731.41
45.66 -189.72 1732.00
42.95 -190.08 1731.69
43.08 -190.18 1731.71
42.88 -190.03 1731.69
43.37 -190.15 1731.51
43.71 -190.24 1731.51
43.52 -190.42 1731.84
43.83 -190.44 1731.81
43.85 -190.30 1731.56
44.18 -190.38 1731.74
44.22 -190.40 1731.80
44.25 -190.37 1731.74
44.48 -190.36 1731.65
44.37 -190.35 1731.63
44.57 -190.35 1731.60
45.06 -190.28 1731.49
45.38 -190.22 1731.43
45.45 -190.21 1731.42
45.01 -190.30 1731.43
45.51 -190.03 1731.68
45.46 -190.17 1731.53
45.58 -190.09 1731.49
45.59 -189.78 1731.99
45.58 -189.91 1731.78
45.56 -190.15 1731.41
32.55 -191.99 1731.66
32.47 -191.93 1731.65
30.90 -192.39 1731.57
31.08 -192.14 1731.65
32.83 -192.12 1731.36
32.85 -192.17 1731.55
32.79 -192.09 1731.33
30.90 -192.59 1731.76
30.82 -192.96 1731.77
30.73 -192.78 1731.62
30.54 -193.36 1731.69
30.69 -193.08 1731.69
30.61 -193.25 1731.70
33.69 -193.07 1731.61
33.48 -192.82 1731.68
33.66 -193.07 1731.73
33.92 -193.42 1731.63
30.46 -193.67 1731.68
30.56 -193.49 1731.79
33.87 -193.41 1731.79
30.47 -193.98 1731.75
30.49 -193.92 1731.65
33.99 -193.92 1731.81
30.45 -194.20 1731.71
30.44 -194.29 1731.60
34.01 -194.02 1731.74
30.40 -194.98 1731.57
30.42 -194.62 1731.55
30.40 -194.97 1731.51
33.77 -194.70 1731.90
33.68 -194.93 1731.90
33.94 -194.96 1731.55
33.83 -194.82 1731.72
33.75 -194.97 1731.77
30.43 -194.99 1731.75
30.44 -195.22 1731.60
30.44 -195.11 1731.68
33.80 -195.44 1731.51
33.89 -195.13 1731.55
30.42 -195.28 1731.52
30.49 -195.51 1731.62
33.59 -195.25 1731.79
33.62 -195.47 1731.65
33.67 -195.25 1731.74
33.73 -195.58 1731.51
30.56 -195.72 1731.67
30.76 -196.17 1731.48
30.89 -196.27 1731.50
31.11 -196.37 1731.59
30.84 -196.14 1731.62
30.88 -196.09 1731.70
30.84 -196.07 1731.69
31.55 -196.39 1731.66
31.29 -196.40 1731.59
31.40 -196.30 1731.78
31.38 -196.27 1731.83
53.01 -203.29 1731.45
53.28 -203.14 1731.41
53.03 -203.24 1731.61
52.97 -203.27 1731.58
52.80 -203.38 1731.55
52.78 -203.46 1731.47
53.33 -203.22 1731.64
52.49 -203.61 1731.66
52.49 -203.56 1731.72
53.48 -203.41 1731.63
53.62 -203.57 1731.60
53.62 -203.62 1731.76
52.34 -203.96 1731.63
52.40 -203.85 1731.61
52.43 -203.79 1731.62
52.30 -203.74 1731.79
53.96 -204.04 1731.63
53.92 -204.03 1731.79
53.72 -203.67 1731.53
53.83 -203.85 1731.65
52.27 -204.42 1731.53
52.27 -204.34 1731.57
52.18 -204.37 1731.77
52.19 -204.35 1731.76
54.17 -204.29 1731.66
52.21 -204.72 1731.65
54.47 -204.64 1731.68
54.52 -204.66 1731.76
52.25 -204.95 1731.48
52.24 -204.88 1731.81
54.59 -204.80 1731.75
54.63 -205.02 1731.73
54.62 -204.89 1731.53
52.34 -205.22 1731.68
52.34 -205.17 1731.76
52.44 -205.43 1731.67
52.41 -205.37 1731.70
54.69 -205.23 1731.68
54.72 -205.22 1731.57
54.72 -205.36 1731.57
52.54 -205.75 1731.50
52.75 -205.75 1731.68
54.52 -205.65 1731.78
54.47 -205.75 1731.79
54.84 -205.54 1731.46
54.79 -205.72 1731.53
53.20 -206.06 1731.62
53.43 -205.89 1731.85
53.44 -206.17 1731.60
53.69 -205.95 1731.84
53.60 -206.13 1731.68
53.60 -206.11 1731.69
53.51 -205.87 1731.88
54.23 -206.02 1731.76
54.41 -205.99 1731.74
54.57 -205.87 1731.70
54.66 -206.03 1731.61
54.82 -206.03 1731.53
54.94 -206.14 1731.45
53.84 -206.39 1731.52
53.89 -206.26 1731.62
54.17 -206.25 1731.66
54.26 -206.23 1731.66
54.15 -206.21 1731.68
54.04 -206.42 1731.53
54.34 -206.51 1731.50
54.70 -206.32 1731.53
54.64 -206.52 1731.46
54.71 -206.48 1731.47
54.84 -206.40 1731.46
60.41 -209.49 1731.83
60.27 -209.45 1731.83
60.46 -209.59 1731.82
60.66 -209.48 1731.86
59.78 -209.41 1731.84
59.57 -209.73 1731.82
59.66 -209.73 1731.82
59.84 -209.45 1731.84
59.50 -209.53 1731.83
59.87 -210.03 1731.81
59.52 -209.89 1731.82
59.50 -209.92 1731.81
60.09 -210.09 1731.80
60.03 -209.36 1731.84
60.03 -209.54 1731.83
60.31 -209.77 1731.80
59.97 -209.73 1731.83
60.16 -209.48 1731.82
70.76 -210.81 1731.87
70.72 -210.83 1731.86
70.96 -210.78 1731.86
71.09 -210.82 1731.84
71.03 -211.08 1731.66
71.41 -211.08 1731.66
71.40 -211.07 1731.67
70.50 -211.14 1731.74
70.54 -211.23 1731.70
70.36 -210.98 1731.84
70.64 -210.99 1731.77
70.63 -211.02 1731.76
71.39 -211.28 1731.52
71.71 -211.23 1731.55
71.79 -211.23 1731.56
71.90 -211.20 1731.62
72.12 -211.31 1731.61
72.20 -211.37 1731.60
72.30 -211.46 1731.57
70.51 -211.33 1731.68
70.38 -211.49 1731.70
71.00 -211.07 1731.67
71.12 -211.38 1731.52
70.81 -211.39 1731.58
70.89 -211.39 1731.56
70.61 -211.57 1731.60
70.52 -211.53 1731.65
72.40 -211.51 1731.59
72.47 -211.55 1731.63
72.65 -211.71 1731.57
70.41 -212.15 1731.64
70.51 -212.06 1731.59
70.19 -211.75 1731.75
70.17 -212.04 1731.77
70.59 -212.02 1731.56
70.57 -211.97 1731.56
70.69 -211.91 1731.52
70.79 -211.81 1731.49
72.79 -211.82 1731.62
72.88 -211.90 1731.62
72.98 -211.96 1731.67
72.90 -211.94 1731.56
64.12 -212.23 1731.78
64.17 -212.17 1731.80
64.35 -212.37 1731.71
64.79 -212.39 1731.71
64.65 -212.48 1731.67
64.86 -212.33 1731.74
64.77 -212.83 1731.55
64.96 -212.51 1731.68
70.31 -212.17 1731.70
70.43 -212.31 1731.66
70.20 -212.19 1731.77
73.18 -212.13 1731.49
73.24 -212.18 1731.44
73.37 -212.27 1731.52
73.13 -212.07 1731.72
63.97 -212.53 1731.73
64.44 -212.53 1731.65
64.42 -212.57 1731.64
64.17 -212.58 1731.69
64.17 -212.61 1731.68
64.38 -212.74 1731.61
64.40 -212.77 1731.60
65.00 -212.86 1731.54
64.99 -212.71 1731.60
65.08 -212.93 1731.51
65.13 -212.61 1731.64
65.45 -212.66 1731.67
65.68 -212.73 1731.68
65.45 -212.89 1731.54
65.49 -212.62 1731.70
65.56 -212.67 1731.69
70.37 -212.50 1731.73
70.60 -212.70 1731.63
70.70 -212.27 1731.50
70.95 -212.72 1731.39
70.80 -212.52 1731.47
70.86 -212.63 1731.44
73.81 -212.65 1731.60
73.86 -212.69 1731.59
73.45 -212.40 1731.76
73.45 -212.33 1731.48
73.87 -212.59 1731.47
73.95 -212.64 1731.45
64.03 -212.91 1731.67
64.07 -212.85 1731.66
65.99 -213.03 1731.57
65.77 -213.16 1731.45
65.75 -213.11 1731.48
66.03 -213.03 1731.58
66.33 -213.22 1731.56
66.20 -212.96 1731.69
65.99 -212.79 1731.72
66.01 -212.83 1731.70
66.46 -213.23 1731.62
66.25 -213.31 1731.47
70.71 -212.89 1731.63
71.06 -213.21 1731.47
71.12 -212.80 1731.28
70.81 -212.82 1731.51
71.02 -212.91 1731.39
73.88 -213.18 1731.79
73.94 -213.00 1731.69
74.11 -213.09 1731.60
73.91 -212.83 1731.66
74.03 -212.91 1731.60
74.19 -212.82 1731.41
64.07 -213.28 1731.68
64.05 -213.21 1731.66
64.29 -213.21 1731.59
64.38 -213.24 1731.57
70.89 -213.26 1731.82
71.00 -213.24 1731.61
70.94 -213.22 1731.66
71.11 -213.31 1731.51
64.36 -213.46 1731.60
64.22 -213.64 1731.70
64.23 -213.44 1731.64
64.45 -214.17 1731.75
64.34 -214.04 1731.76
64.46 -214.03 1731.66
64.66 -214.07 1731.56
64.49 -213.74 1731.59
64.28 -213.82 1731.71
66.45 -213.48 1731.41
66.53 -213.25 1731.63
66.74 -213.40 1731.58
67.11 -213.67 1731.55
66.84 -213.54 1731.51
67.13 -213.69 1731.54
71.34 -213.67 1731.72
71.27 -213.61 1731.72
73.86 -213.67 1731.82
73.94 -213.51 1731.78
73.88 -213.51 1731.82
67.50 -213.81 1731.64
67.75 -213.95 1731.66
67.91 -214.07 1731.65
68.01 -214.09 1731.72
71.48 -213.79 1731.56
71.53 -213.84 1731.52
71.66 -213.93 1731.76
71.67 -213.95 1731.69
73.98 -213.82 1731.72
73.91 -213.73 1731.78
74.15 -214.00 1731.61
74.12 -213.94 1731.63
74.15 -213.83 1731.63
64.69 -214.42 1731.75
64.72 -214.49 1731.78
68.17 -214.24 1731.71
68.08 -214.24 1731.60
68.30 -214.42 1731.68
71.93 -214.13 1731.68
71.89 -214.14 1731.51
72.14 -214.26 1731.79
73.52 -214.49 1731.64
73.20 -214.29 1731.88
73.30 -214.40 1731.77
73.34 -214.52 1731.67
73.58 -214.07 1731.86
73.45 -214.21 1731.84
73.63 -214.21 1731.76
73.76 -214.30 1731.66
74.21 -214.17 1731.55
73.82 -214.23 1731.67
74.23 -214.20 1731.53
73.99 -214.43 1731.51
74.33 -214.49 1731.39
73.90 -214.49 1731.51
74.36 -214.34 1731.42
64.97 -214.75 1731.69
64.92 -214.55 1731.58
64.84 -214.60 1731.73
68.31 -214.66 1731.74
72.30 -214.45 1731.59
72.40 -214.57 1731.44
72.53 -214.56 1731.62
72.39 -214.50 1731.60
72.89 -214.64 1731.63
72.80 -214.67 1731.57
73.40 -214.76 1731.40
73.36 -214.77 1731.39
73.42 -214.60 1731.57
73.09 -214.58 1731.68
65.27 -215.08 1731.58
65.29 -215.14 1731.71
65.28 -215.14 1731.75
68.15 -215.06 1731.81
68.29 -214.87 1731.64
65.32 -215.21 1731.76
65.45 -215.36 1731.75
68.25 -215.15 1731.53
68.24 -215.24 1731.49
68.13 -215.51 1731.59
68.11 -215.29 1731.75
65.65 -215.61 1731.73
65.61 -215.57 1731.55
65.92 -215.87 1731.83
68.10 -215.81 1731.55
68.03 -215.83 1731.63
67.97 -215.71 1731.76
66.02 -216.04 1731.66
65.94 -215.97 1731.61
68.10 -215.96 1731.52
67.89 -216.02 1731.71
66.48 -216.40 1731.64
66.32 -216.23 1731.72
66.29 -216.22 1731.72
66.55 -216.26 1731.80
66.69 -216.31 1731.77
67.17 -216.41 1731.81
67.21 -216.60 1731.70
67.44 -216.47 1731.72
67.51 -216.31 1731.80
67.69 -216.63 1731.57
67.43 -216.35 1731.80
67.59 -216.38 1731.74
67.72 -216.53 1731.61
67.84 -216.21 1731.68
66.82 -216.38 1731.77
66.77 -216.56 1731.62
66.65 -216.50 1731.61
66.85 -216.60 1731.63
67.19 -216.72 1731.61
66.95 -216.53 1731.70
66.91 -216.54 1731.69
66.96 -216.19 1731.95
56.20 -164.01 1731.80
56.67 -164.15 1731.99
56.77 -164.06 1731.97
56.73 -164.02 1731.96
56.89 -163.84 1731.91
57.13 -164.04 1732.01
56.86 -164.03 1731.98
57.24 -163.89 1731.95
57.26 -164.01 1732.00
57.31 -164.06 1732.00
57.45 -163.78 1731.88
57.76 -163.88 1731.81
56.20 -164.21 1731.87
56.10 -164.23 1731.82
56.51 -164.18 1731.97
57.51 -164.09 1731.98
57.40 -164.25 1732.05
