39.250000 -186.750000 1847.650000
39.000000 -186.640000 1847.570000
38.750000 -186.530000 1847.500000
38.510000 -186.430000 1847.450000
38.280000 -186.310000 1847.460000
38.030000 -186.190000 1847.510000
37.800000 -186.070000 1847.600000
37.580000 -185.950000 1847.710000
37.360000 -185.820000 1847.840000
37.170000 -185.710000 1848.010000
36.980000 -185.600000 1848.180000
36.830000 -185.500000 1848.370000
36.700000 -185.400000 1848.590000
36.580000 -185.310000 1848.840000
36.510000 -185.240000 1849.090000
36.460000 -185.180000 1849.360000
36.440000 -185.130000 1849.630000
36.450000 -185.100000 1849.900000
36.510000 -185.080000 1850.180000
36.590000 -185.080000 1850.450000
36.720000 -185.110000 1850.700000
36.870000 -185.150000 1850.920000
37.060000 -185.210000 1851.110000
37.280000 -185.290000 1851.270000
37.510000 -185.380000 1851.380000
37.750000 -185.480000 1851.480000
38.000000 -185.590000 1851.540000
38.250000 -185.700000 1851.570000
38.490000 -185.820000 1851.570000
38.730000 -185.940000 1851.530000
38.970000 -186.060000 1851.470000
39.210000 -186.190000 1851.380000
39.460000 -186.320000 1851.290000
39.700000 -186.440000 1851.180000
39.940000 -186.570000 1851.090000
40.150000 -186.690000 1850.970000
40.320000 -186.800000 1850.790000
40.460000 -186.890000 1850.580000
40.580000 -186.990000 1850.320000
40.660000 -187.060000 1850.060000
40.670000 -187.100000 1849.800000
40.640000 -187.130000 1849.530000
40.570000 -187.140000 1849.260000
40.480000 -187.130000 1848.990000
40.360000 -187.110000 1848.730000
40.220000 -187.080000 1848.490000
40.070000 -187.040000 1848.260000
39.890000 -186.990000 1848.070000
39.700000 -186.920000 1847.890000
39.380000 -186.580000 1847.640000
39.140000 -186.480000 1847.550000
38.890000 -186.380000 1847.480000
38.650000 -186.270000 1847.450000
38.400000 -186.160000 1847.430000
38.160000 -186.040000 1847.470000
37.920000 -185.920000 1847.550000
37.690000 -185.790000 1847.670000
37.480000 -185.680000 1847.790000
37.290000 -185.570000 1847.940000
37.110000 -185.460000 1848.110000
36.950000 -185.350000 1848.320000
36.810000 -185.260000 1848.530000
36.690000 -185.170000 1848.760000
36.610000 -185.100000 1849.010000
36.550000 -185.030000 1849.280000
36.530000 -184.980000 1849.550000
36.540000 -184.950000 1849.820000
36.590000 -184.930000 1850.090000
36.660000 -184.920000 1850.360000
36.770000 -184.940000 1850.620000
36.910000 -184.960000 1850.860000
37.090000 -185.020000 1851.060000
37.300000 -185.100000 1851.210000
37.540000 -185.190000 1851.320000
37.800000 -185.300000 1851.400000
38.030000 -185.400000 1851.470000
38.270000 -185.500000 1851.510000
38.520000 -185.620000 1851.500000
38.760000 -185.730000 1851.480000
39.000000 -185.850000 1851.430000
39.250000 -185.980000 1851.360000
39.500000 -186.110000 1851.280000
39.750000 -186.230000 1851.200000
39.980000 -186.360000 1851.090000
40.200000 -186.480000 1850.960000
40.380000 -186.580000 1850.790000
40.520000 -186.680000 1850.580000
40.630000 -186.770000 1850.330000
40.720000 -186.850000 1850.070000
40.770000 -186.910000 1849.810000
40.750000 -186.940000 1849.540000
40.690000 -186.950000 1849.270000
40.590000 -186.940000 1849.010000
40.460000 -186.920000 1848.770000
40.330000 -186.890000 1848.530000
40.180000 -186.850000 1848.310000
40.010000 -186.810000 1848.100000
39.820000 -186.740000 1847.930000
39.600000 -186.670000 1847.760000
39.590000 -186.450000 1847.680000
39.350000 -186.360000 1847.560000
39.110000 -186.260000 1847.470000
38.870000 -186.160000 1847.430000
38.620000 -186.040000 1847.410000
38.370000 -185.930000 1847.430000
38.120000 -185.810000 1847.470000
37.890000 -185.690000 1847.560000
37.670000 -185.570000 1847.680000
37.470000 -185.460000 1847.820000
37.280000 -185.350000 1847.990000
37.100000 -185.240000 1848.170000
36.960000 -185.150000 1848.370000
36.840000 -185.060000 1848.600000
36.750000 -184.980000 1848.860000
36.690000 -184.910000 1849.130000
36.650000 -184.850000 1849.400000
36.640000 -184.810000 1849.670000
36.650000 -184.770000 1849.940000
36.720000 -184.760000 1850.200000
36.810000 -184.770000 1850.460000
36.940000 -184.790000 1850.710000
37.090000 -184.830000 1850.930000
37.280000 -184.880000 1851.120000
37.500000 -184.960000 1851.270000
37.730000 -185.050000 1851.370000
37.980000 -185.160000 1851.420000
38.220000 -185.260000 1851.440000
38.470000 -185.380000 1851.440000
38.710000 -185.490000 1851.440000
38.950000 -185.600000 1851.410000
39.200000 -185.720000 1851.370000
39.450000 -185.840000 1851.310000
39.700000 -185.970000 1851.220000
39.930000 -186.090000 1851.120000
40.150000 -186.210000 1851.000000
40.340000 -186.320000 1850.840000
40.510000 -186.420000 1850.660000
40.640000 -186.520000 1850.440000
40.750000 -186.600000 1850.180000
40.820000 -186.680000 1849.920000
40.840000 -186.730000 1849.640000
40.810000 -186.750000 1849.380000
40.730000 -186.760000 1849.110000
40.630000 -186.750000 1848.860000
40.500000 -186.720000 1848.610000
40.350000 -186.690000 1848.390000
40.180000 -186.640000 1848.180000
40.000000 -186.590000 1847.980000
39.790000 -186.520000 1847.810000
39.680000 -186.270000 1847.640000
39.430000 -186.180000 1847.530000
39.190000 -186.080000 1847.440000
38.950000 -185.980000 1847.390000
38.700000 -185.870000 1847.380000
38.460000 -185.760000 1847.410000
38.210000 -185.640000 1847.470000
37.970000 -185.520000 1847.550000
37.750000 -185.400000 1847.660000
37.540000 -185.290000 1847.800000
37.340000 -185.170000 1847.960000
37.170000 -185.070000 1848.150000
37.040000 -184.980000 1848.360000
36.930000 -184.890000 1848.590000
36.840000 -184.810000 1848.840000
36.770000 -184.750000 1849.100000
36.740000 -184.690000 1849.370000
36.740000 -184.650000 1849.640000
36.760000 -184.620000 1849.910000
36.830000 -184.610000 1850.190000
36.920000 -184.610000 1850.440000
37.030000 -184.620000 1850.690000
37.190000 -184.660000 1850.910000
37.370000 -184.710000 1851.110000
37.590000 -184.780000 1851.270000
37.810000 -184.870000 1851.360000
38.060000 -184.980000 1851.410000
38.310000 -185.090000 1851.440000
38.560000 -185.190000 1851.450000
38.800000 -185.300000 1851.420000
39.040000 -185.420000 1851.380000
39.280000 -185.540000 1851.320000
39.530000 -185.660000 1851.240000
39.760000 -185.780000 1851.140000
39.990000 -185.900000 1851.040000
40.220000 -186.020000 1850.920000
40.420000 -186.130000 1850.780000
40.590000 -186.230000 1850.600000
40.720000 -186.320000 1850.380000
40.820000 -186.410000 1850.130000
40.880000 -186.470000 1849.870000
40.910000 -186.530000 1849.590000
40.890000 -186.560000 1849.330000
40.820000 -186.570000 1849.060000
40.720000 -186.560000 1848.810000
40.580000 -186.530000 1848.580000
40.420000 -186.490000 1848.360000
40.250000 -186.450000 1848.150000
40.070000 -186.400000 1847.960000
39.880000 -186.340000 1847.780000
39.600000 -186.030000 1847.550000
39.370000 -185.940000 1847.450000
39.120000 -185.840000 1847.390000
38.880000 -185.740000 1847.370000
38.630000 -185.630000 1847.370000
38.390000 -185.510000 1847.420000
38.160000 -185.400000 1847.490000
37.920000 -185.280000 1847.590000
37.710000 -185.170000 1847.710000
37.520000 -185.060000 1847.860000
37.340000 -184.960000 1848.040000
37.190000 -184.860000 1848.240000
37.060000 -184.770000 1848.460000
36.960000 -184.690000 1848.690000
36.890000 -184.620000 1848.950000
36.850000 -184.560000 1849.210000
36.840000 -184.510000 1849.490000
36.860000 -184.480000 1849.760000
36.910000 -184.460000 1850.030000
36.980000 -184.450000 1850.290000
37.070000 -184.450000 1850.550000
37.190000 -184.470000 1850.790000
37.370000 -184.510000 1850.990000
37.570000 -184.580000 1851.170000
37.810000 -184.660000 1851.300000
38.050000 -184.750000 1851.380000
38.290000 -184.850000 1851.430000
38.530000 -184.950000 1851.440000
38.780000 -185.070000 1851.420000
39.020000 -185.180000 1851.380000
39.270000 -185.300000 1851.330000
39.500000 -185.410000 1851.250000
39.730000 -185.530000 1851.160000
39.960000 -185.650000 1851.040000
40.170000 -185.760000 1850.910000
40.380000 -185.870000 1850.780000
40.560000 -185.980000 1850.620000
40.720000 -186.080000 1850.430000
40.840000 -186.160000 1850.190000
40.930000 -186.240000 1849.930000
40.980000 -186.310000 1849.670000
40.980000 -186.350000 1849.400000
40.940000 -186.370000 1849.130000
40.850000 -186.370000 1848.870000
40.730000 -186.360000 1848.630000
40.580000 -186.330000 1848.400000
40.420000 -186.290000 1848.200000
40.240000 -186.230000 1848.020000
40.030000 -186.170000 1847.830000
39.820000 -186.110000 1847.670000
39.490000 -185.780000 1847.430000
39.250000 -185.680000 1847.370000
39.000000 -185.580000 1847.330000
38.750000 -185.470000 1847.330000
38.510000 -185.360000 1847.370000
38.270000 -185.250000 1847.430000
38.050000 -185.140000 1847.520000
37.830000 -185.020000 1847.640000
37.630000 -184.920000 1847.770000
37.450000 -184.810000 1847.950000
37.300000 -184.720000 1848.140000
37.160000 -184.620000 1848.360000
37.060000 -184.540000 1848.600000
36.990000 -184.470000 1848.860000
36.950000 -184.410000 1849.120000
36.930000 -184.360000 1849.390000
36.940000 -184.330000 1849.650000
36.990000 -184.310000 1849.920000
37.070000 -184.300000 1850.180000
37.170000 -184.300000 1850.440000
37.300000 -184.320000 1850.690000
37.460000 -184.350000 1850.910000
37.640000 -184.400000 1851.100000
37.850000 -184.470000 1851.240000
38.070000 -184.550000 1851.340000
38.310000 -184.650000 1851.400000
38.560000 -184.750000 1851.420000
38.810000 -184.860000 1851.420000
39.060000 -184.970000 1851.390000
39.300000 -185.080000 1851.340000
39.540000 -185.200000 1851.270000
39.780000 -185.320000 1851.180000
40.000000 -185.430000 1851.070000
40.220000 -185.540000 1850.940000
40.410000 -185.650000 1850.790000
40.590000 -185.760000 1850.610000
40.740000 -185.850000 1850.420000
40.860000 -185.940000 1850.200000
40.960000 -186.020000 1849.960000
41.020000 -186.080000 1849.700000
41.030000 -186.130000 1849.420000
41.000000 -186.160000 1849.160000
40.940000 -186.170000 1848.900000
40.830000 -186.170000 1848.650000
40.700000 -186.140000 1848.420000
40.540000 -186.110000 1848.210000
40.360000 -186.060000 1848.010000
40.160000 -186.000000 1847.840000
39.950000 -185.930000 1847.680000
39.710000 -185.860000 1847.540000
39.690000 -185.640000 1847.470000
39.450000 -185.550000 1847.380000
39.210000 -185.460000 1847.330000
38.970000 -185.360000 1847.300000
38.720000 -185.250000 1847.320000
38.480000 -185.140000 1847.370000
38.230000 -185.020000 1847.440000
38.010000 -184.910000 1847.540000
37.800000 -184.810000 1847.660000
37.610000 -184.700000 1847.810000
37.450000 -184.600000 1848.000000
37.310000 -184.510000 1848.210000
37.190000 -184.420000 1848.440000
37.110000 -184.350000 1848.690000
37.060000 -184.280000 1848.940000
37.030000 -184.230000 1849.210000
37.040000 -184.190000 1849.470000
37.070000 -184.160000 1849.740000
37.120000 -184.140000 1850.000000
37.210000 -184.140000 1850.260000
37.330000 -184.150000 1850.510000
37.460000 -184.170000 1850.740000
37.630000 -184.210000 1850.940000
37.830000 -184.260000 1851.120000
38.060000 -184.340000 1851.240000
38.300000 -184.430000 1851.330000
38.540000 -184.520000 1851.380000
38.780000 -184.620000 1851.400000
39.030000 -184.730000 1851.400000
39.270000 -184.840000 1851.360000
39.510000 -184.950000 1851.310000
39.730000 -185.050000 1851.230000
39.940000 -185.160000 1851.120000
40.140000 -185.270000 1850.970000
40.320000 -185.370000 1850.800000
40.510000 -185.480000 1850.650000
40.690000 -185.580000 1850.470000
40.840000 -185.680000 1850.280000
40.960000 -185.760000 1850.050000
41.040000 -185.840000 1849.810000
41.080000 -185.900000 1849.540000
41.080000 -185.940000 1849.270000
41.050000 -185.970000 1848.990000
40.970000 -185.980000 1848.730000
40.860000 -185.970000 1848.490000
40.720000 -185.950000 1848.270000
40.550000 -185.910000 1848.070000
40.350000 -185.850000 1847.890000
40.140000 -185.790000 1847.730000
39.910000 -185.710000 1847.580000
39.740000 -185.450000 1847.430000
39.500000 -185.360000 1847.350000
39.260000 -185.270000 1847.300000
39.010000 -185.170000 1847.280000
38.770000 -185.070000 1847.290000
38.530000 -184.960000 1847.320000
38.300000 -184.850000 1847.400000
38.070000 -184.740000 1847.510000
37.870000 -184.640000 1847.640000
37.680000 -184.530000 1847.800000
37.510000 -184.430000 1847.980000
37.370000 -184.340000 1848.190000
37.250000 -184.250000 1848.420000
37.180000 -184.180000 1848.670000
37.140000 -184.120000 1848.920000
37.130000 -184.080000 1849.190000
37.140000 -184.040000 1849.450000
37.190000 -184.010000 1849.720000
37.250000 -183.990000 1849.990000
37.340000 -183.990000 1850.240000
37.450000 -183.990000 1850.490000
37.580000 -184.010000 1850.730000
37.750000 -184.050000 1850.940000
37.950000 -184.100000 1851.100000
38.170000 -184.170000 1851.230000
38.410000 -184.260000 1851.320000
38.660000 -184.350000 1851.370000
38.900000 -184.450000 1851.390000
39.140000 -184.550000 1851.400000
39.390000 -184.650000 1851.370000
39.630000 -184.760000 1851.320000
39.850000 -184.870000 1851.230000
40.060000 -184.970000 1851.120000
40.240000 -185.080000 1850.960000
40.400000 -185.170000 1850.780000
40.560000 -185.270000 1850.590000
40.730000 -185.370000 1850.400000
40.880000 -185.470000 1850.190000
41.000000 -185.550000 1849.970000
41.080000 -185.620000 1849.730000
41.120000 -185.680000 1849.470000
41.120000 -185.730000 1849.210000
41.080000 -185.760000 1848.940000
41.010000 -185.770000 1848.670000
40.910000 -185.770000 1848.430000
40.770000 -185.750000 1848.200000
40.600000 -185.710000 1848.000000
40.400000 -185.660000 1847.810000
40.200000 -185.600000 1847.660000
39.970000 -185.530000 1847.530000
39.850000 -185.290000 1847.360000
39.620000 -185.200000 1847.280000
39.370000 -185.110000 1847.230000
39.130000 -185.020000 1847.200000
38.880000 -184.910000 1847.220000
38.640000 -184.810000 1847.270000
38.410000 -184.700000 1847.340000
38.190000 -184.590000 1847.450000
37.980000 -184.480000 1847.580000
37.800000 -184.380000 1847.740000
37.630000 -184.280000 1847.920000
37.490000 -184.190000 1848.140000
37.370000 -184.100000 1848.370000
37.280000 -184.030000 1848.610000
37.230000 -183.960000 1848.860000
37.220000 -183.910000 1849.120000
37.220000 -183.870000 1849.380000
37.260000 -183.840000 1849.650000
37.320000 -183.820000 1849.910000
37.420000 -183.820000 1850.170000
37.530000 -183.830000 1850.420000
37.670000 -183.850000 1850.650000
37.830000 -183.870000 1850.860000
38.020000 -183.920000 1851.040000
38.230000 -183.990000 1851.180000
38.470000 -184.070000 1851.270000
38.720000 -184.160000 1851.350000
38.960000 -184.250000 1851.390000
39.210000 -184.350000 1851.410000
39.450000 -184.450000 1851.390000
39.690000 -184.560000 1851.350000
39.900000 -184.660000 1851.250000
40.110000 -184.770000 1851.130000
40.300000 -184.870000 1850.980000
40.480000 -184.970000 1850.810000
40.630000 -185.060000 1850.620000
40.770000 -185.160000 1850.410000
40.890000 -185.240000 1850.190000
40.990000 -185.320000 1849.950000
41.060000 -185.390000 1849.700000
41.110000 -185.460000 1849.440000
41.130000 -185.510000 1849.180000
41.110000 -185.550000 1848.920000
41.070000 -185.570000 1848.660000
40.990000 -185.580000 1848.410000
40.860000 -185.570000 1848.170000
40.690000 -185.530000 1847.960000
40.500000 -185.480000 1847.790000
40.290000 -185.420000 1847.630000
40.070000 -185.360000 1847.480000
39.740000 -185.050000 1847.220000
39.500000 -184.960000 1847.160000
39.260000 -184.870000 1847.150000
39.020000 -184.770000 1847.170000
38.780000 -184.660000 1847.210000
38.540000 -184.550000 1847.290000
38.320000 -184.440000 1847.400000
38.110000 -184.340000 1847.530000
37.920000 -184.240000 1847.680000
37.760000 -184.140000 1847.860000
37.610000 -184.040000 1848.070000
37.490000 -183.960000 1848.290000
37.400000 -183.880000 1848.520000
37.340000 -183.810000 1848.780000
37.310000 -183.760000 1849.030000
37.310000 -183.710000 1849.300000
37.340000 -183.680000 1849.560000
37.400000 -183.660000 1849.820000
37.480000 -183.650000 1850.080000
37.590000 -183.660000 1850.320000
37.730000 -183.670000 1850.560000
37.890000 -183.700000 1850.770000
38.070000 -183.740000 1850.960000
38.280000 -183.800000 1851.110000
38.500000 -183.870000 1851.230000
38.740000 -183.950000 1851.310000
38.980000 -184.040000 1851.350000
39.230000 -184.140000 1851.370000
39.470000 -184.240000 1851.370000
39.710000 -184.340000 1851.340000
39.950000 -184.450000 1851.280000
40.150000 -184.550000 1851.170000
40.330000 -184.650000 1851.030000
40.490000 -184.740000 1850.840000
40.640000 -184.830000 1850.640000
40.770000 -184.930000 1850.410000
40.890000 -185.010000 1850.190000
41.000000 -185.100000 1849.950000
41.080000 -185.170000 1849.720000
41.150000 -185.240000 1849.470000
41.170000 -185.290000 1849.210000
41.160000 -185.330000 1848.940000
41.120000 -185.360000 1848.680000
41.050000 -185.380000 1848.420000
40.940000 -185.370000 1848.180000
40.800000 -185.350000 1847.960000
40.610000 -185.310000 1847.770000
40.420000 -185.260000 1847.600000
40.200000 -185.200000 1847.450000
39.970000 -185.130000 1847.320000
39.830000 -184.870000 1847.190000
39.590000 -184.790000 1847.130000
39.350000 -184.700000 1847.100000
39.110000 -184.600000 1847.110000
38.870000 -184.500000 1847.160000
38.640000 -184.390000 1847.250000
38.420000 -184.280000 1847.360000
38.210000 -184.180000 1847.490000
38.020000 -184.070000 1847.650000
37.850000 -183.980000 1847.810000
37.710000 -183.890000 1848.010000
37.590000 -183.800000 1848.230000
37.490000 -183.720000 1848.470000
37.430000 -183.650000 1848.720000
37.400000 -183.600000 1848.980000
37.400000 -183.550000 1849.240000
37.430000 -183.520000 1849.500000
37.490000 -183.500000 1849.760000
37.580000 -183.490000 1850.020000
37.680000 -183.490000 1850.260000
37.810000 -183.500000 1850.490000
37.970000 -183.530000 1850.700000
38.160000 -183.570000 1850.900000
38.350000 -183.620000 1851.050000
38.580000 -183.690000 1851.170000
38.810000 -183.770000 1851.260000
39.050000 -183.860000 1851.320000
39.290000 -183.950000 1851.360000
39.540000 -184.040000 1851.360000
39.780000 -184.140000 1851.330000
40.010000 -184.240000 1851.280000
40.210000 -184.340000 1851.170000
40.390000 -184.440000 1851.020000
40.550000 -184.540000 1850.830000
40.680000 -184.630000 1850.620000
40.800000 -184.710000 1850.400000
40.920000 -184.800000 1850.170000
41.020000 -184.880000 1849.920000
41.110000 -184.960000 1849.690000
41.180000 -185.020000 1849.440000
41.210000 -185.080000 1849.180000
41.210000 -185.130000 1848.920000
41.170000 -185.160000 1848.660000
41.100000 -185.180000 1848.400000
41.010000 -185.180000 1848.150000
40.870000 -185.170000 1847.930000
40.700000 -185.130000 1847.730000
40.510000 -185.080000 1847.550000
40.300000 -185.020000 1847.410000
40.060000 -184.950000 1847.280000
40.010000 -184.730000 1847.190000
39.770000 -184.650000 1847.120000
39.530000 -184.560000 1847.080000
39.280000 -184.470000 1847.080000
39.050000 -184.370000 1847.110000
38.810000 -184.260000 1847.180000
38.580000 -184.150000 1847.280000
38.370000 -184.050000 1847.390000
38.170000 -183.950000 1847.540000
37.990000 -183.850000 1847.700000
37.840000 -183.750000 1847.880000
37.700000 -183.670000 1848.080000
37.600000 -183.590000 1848.310000
37.540000 -183.520000 1848.560000
37.500000 -183.460000 1848.810000
37.490000 -183.410000 1849.070000
37.510000 -183.370000 1849.320000
37.560000 -183.340000 1849.590000
37.640000 -183.330000 1849.840000
37.740000 -183.330000 1850.090000
37.860000 -183.330000 1850.330000
38.000000 -183.350000 1850.550000
38.160000 -183.380000 1850.750000
38.350000 -183.420000 1850.930000
38.560000 -183.480000 1851.080000
38.790000 -183.550000 1851.200000
39.020000 -183.630000 1851.290000
39.260000 -183.710000 1851.330000
39.500000 -183.800000 1851.350000
39.750000 -183.900000 1851.340000
39.990000 -184.000000 1851.300000
40.220000 -184.110000 1851.220000
40.410000 -184.210000 1851.090000
40.570000 -184.300000 1850.920000
40.700000 -184.390000 1850.700000
40.810000 -184.470000 1850.470000
40.920000 -184.560000 1850.230000
41.030000 -184.640000 1850.000000
41.120000 -184.720000 1849.750000
41.190000 -184.790000 1849.490000
41.230000 -184.850000 1849.240000
41.250000 -184.910000 1848.980000
41.230000 -184.950000 1848.730000
41.190000 -184.970000 1848.470000
41.110000 -184.980000 1848.220000
41.000000 -184.980000 1847.990000
40.840000 -184.960000 1847.770000
40.660000 -184.920000 1847.580000
40.460000 -184.870000 1847.420000
40.230000 -184.800000 1847.290000
40.230000 -184.590000 1847.230000
40.000000 -184.520000 1847.130000
39.760000 -184.440000 1847.070000
39.520000 -184.350000 1847.040000
39.270000 -184.260000 1847.040000
39.050000 -184.160000 1847.090000
38.820000 -184.060000 1847.160000
38.600000 -183.950000 1847.260000
38.390000 -183.850000 1847.390000
38.190000 -183.740000 1847.550000
38.030000 -183.650000 1847.720000
37.880000 -183.560000 1847.910000
37.760000 -183.470000 1848.120000
37.660000 -183.390000 1848.350000
37.610000 -183.330000 1848.600000
37.570000 -183.270000 1848.850000
37.570000 -183.220000 1849.120000
37.600000 -183.190000 1849.380000
37.660000 -183.170000 1849.630000
37.750000 -183.160000 1849.880000
37.860000 -183.160000 1850.120000
37.990000 -183.170000 1850.340000
38.160000 -183.200000 1850.550000
38.320000 -183.230000 1850.740000
38.520000 -183.280000 1850.910000
38.720000 -183.330000 1851.050000
38.940000 -183.390000 1851.180000
39.180000 -183.470000 1851.270000
39.420000 -183.550000 1851.330000
39.660000 -183.640000 1851.350000
39.900000 -183.740000 1851.330000
40.130000 -183.840000 1851.270000
40.350000 -183.950000 1851.170000
40.550000 -184.050000 1851.020000
40.690000 -184.140000 1850.830000
40.790000 -184.220000 1850.600000
40.900000 -184.300000 1850.360000
41.000000 -184.380000 1850.110000
41.080000 -184.460000 1849.870000
41.170000 -184.540000 1849.620000
41.240000 -184.610000 1849.360000
41.290000 -184.680000 1849.110000
41.300000 -184.730000 1848.860000
41.290000 -184.760000 1848.610000
41.230000 -184.790000 1848.350000
41.130000 -184.790000 1848.110000
40.990000 -184.780000 1847.880000
40.830000 -184.750000 1847.660000
40.640000 -184.710000 1847.480000
40.440000 -184.660000 1847.340000
40.110000 -184.360000 1847.100000
39.870000 -184.280000 1847.030000
39.620000 -184.190000 1847.000000
39.390000 -184.100000 1847.000000
39.150000 -184.000000 1847.040000
38.920000 -183.900000 1847.100000
38.700000 -183.800000 1847.190000
38.490000 -183.690000 1847.320000
38.300000 -183.590000 1847.470000
38.120000 -183.500000 1847.630000
37.980000 -183.400000 1847.820000
37.850000 -183.320000 1848.030000
37.760000 -183.240000 1848.250000
37.680000 -183.170000 1848.490000
37.650000 -183.110000 1848.740000
37.650000 -183.070000 1848.990000
37.670000 -183.030000 1849.250000
37.730000 -183.010000 1849.510000
37.810000 -182.990000 1849.760000
37.920000 -182.990000 1850.000000
38.060000 -183.000000 1850.230000
38.210000 -183.020000 1850.440000
38.380000 -183.050000 1850.620000
38.560000 -183.090000 1850.800000
38.770000 -183.150000 1850.950000
38.990000 -183.200000 1851.090000
39.220000 -183.270000 1851.200000
39.450000 -183.350000 1851.280000
39.690000 -183.430000 1851.330000
39.930000 -183.530000 1851.310000
40.170000 -183.630000 1851.250000
40.380000 -183.730000 1851.140000
40.570000 -183.830000 1850.990000
40.730000 -183.930000 1850.820000
40.860000 -184.010000 1850.630000
40.980000 -184.100000 1850.410000
41.080000 -184.180000 1850.170000
41.170000 -184.260000 1849.910000
41.260000 -184.340000 1849.660000
41.340000 -184.410000 1849.420000
41.390000 -184.480000 1849.170000
41.390000 -184.520000 1848.930000
41.350000 -184.550000 1848.660000
41.260000 -184.570000 1848.410000
41.160000 -184.570000 1848.160000
41.030000 -184.570000 1847.930000
40.900000 -184.550000 1847.710000
40.730000 -184.520000 1847.510000
40.540000 -184.480000 1847.340000
40.330000 -184.420000 1847.200000
40.120000 -184.160000 1847.040000
39.870000 -184.080000 1846.980000
39.630000 -183.990000 1846.960000
39.410000 -183.900000 1846.980000
39.170000 -183.800000 1847.030000
38.950000 -183.700000 1847.110000
38.740000 -183.600000 1847.220000
38.540000 -183.500000 1847.350000
38.360000 -183.400000 1847.500000
38.200000 -183.310000 1847.680000
38.050000 -183.220000 1847.860000
37.900000 -183.120000 1848.060000
37.810000 -183.050000 1848.270000
37.750000 -182.980000 1848.510000
37.720000 -182.930000 1848.760000
37.730000 -182.880000 1849.020000
37.760000 -182.850000 1849.280000
37.820000 -182.820000 1849.540000
37.910000 -182.810000 1849.780000
38.030000 -182.810000 1850.010000
38.170000 -182.830000 1850.220000
38.340000 -182.860000 1850.420000
38.510000 -182.890000 1850.600000
38.700000 -182.930000 1850.770000
38.890000 -182.980000 1850.930000
39.110000 -183.030000 1851.070000
39.330000 -183.100000 1851.180000
39.560000 -183.170000 1851.250000
39.800000 -183.260000 1851.270000
40.030000 -183.360000 1851.230000
40.260000 -183.460000 1851.150000
40.480000 -183.560000 1851.030000
40.660000 -183.660000 1850.880000
40.820000 -183.760000 1850.710000
40.940000 -183.840000 1850.500000
41.050000 -183.920000 1850.270000
41.160000 -184.010000 1850.030000
41.250000 -184.090000 1849.790000
41.340000 -184.160000 1849.560000
41.420000 -184.240000 1849.320000
41.470000 -184.300000 1849.070000
41.450000 -184.340000 1848.820000
41.400000 -184.370000 1848.560000
41.300000 -184.380000 1848.310000
41.180000 -184.380000 1848.060000
41.060000 -184.370000 1847.840000
40.920000 -184.360000 1847.630000
40.750000 -184.330000 1847.440000
40.560000 -184.280000 1847.270000
40.340000 -184.230000 1847.130000
40.240000 -184.000000 1847.020000
40.010000 -183.920000 1846.940000
39.770000 -183.840000 1846.920000
39.530000 -183.740000 1846.930000
39.290000 -183.650000 1846.970000
39.060000 -183.540000 1847.050000
38.850000 -183.440000 1847.150000
38.650000 -183.340000 1847.280000
38.460000 -183.240000 1847.430000
38.290000 -183.150000 1847.580000
38.140000 -183.060000 1847.770000
38.000000 -182.970000 1847.960000
37.900000 -182.890000 1848.180000
37.830000 -182.820000 1848.410000
37.810000 -182.770000 1848.660000
37.810000 -182.720000 1848.910000
37.850000 -182.690000 1849.160000
37.910000 -182.670000 1849.420000
37.990000 -182.650000 1849.660000
38.110000 -182.650000 1849.890000
38.230000 -182.660000 1850.120000
38.390000 -182.680000 1850.330000
38.560000 -182.700000 1850.520000
38.730000 -182.740000 1850.680000
38.930000 -182.790000 1850.850000
39.140000 -182.840000 1850.970000
39.360000 -182.900000 1851.090000
39.590000 -182.970000 1851.170000
39.820000 -183.060000 1851.200000
40.060000 -183.150000 1851.190000
40.290000 -183.250000 1851.120000
40.510000 -183.360000 1851.010000
40.720000 -183.460000 1850.880000
40.900000 -183.550000 1850.730000
41.040000 -183.640000 1850.550000
41.150000 -183.720000 1850.350000
41.230000 -183.800000 1850.100000
41.300000 -183.870000 1849.840000
41.370000 -183.950000 1849.590000
41.440000 -184.020000 1849.340000
41.480000 -184.080000 1849.100000
41.470000 -184.120000 1848.850000
41.420000 -184.150000 1848.590000
41.340000 -184.170000 1848.350000
41.230000 -184.170000 1848.100000
41.120000 -184.180000 1847.860000
40.990000 -184.170000 1847.640000
40.840000 -184.150000 1847.430000
40.650000 -184.110000 1847.260000
40.450000 -184.060000 1847.110000
40.270000 -183.810000 1846.960000
40.050000 -183.730000 1846.900000
39.810000 -183.650000 1846.880000
39.580000 -183.560000 1846.900000
39.340000 -183.460000 1846.950000
39.120000 -183.360000 1847.030000
38.900000 -183.250000 1847.140000
38.700000 -183.160000 1847.260000
38.510000 -183.060000 1847.390000
38.340000 -182.970000 1847.550000
38.180000 -182.870000 1847.730000
38.050000 -182.780000 1847.940000
37.950000 -182.700000 1848.160000
37.880000 -182.630000 1848.390000
37.870000 -182.580000 1848.640000
37.870000 -182.540000 1848.890000
37.920000 -182.510000 1849.140000
37.990000 -182.490000 1849.390000
38.090000 -182.480000 1849.640000
38.200000 -182.470000 1849.880000
38.330000 -182.480000 1850.090000
38.490000 -182.500000 1850.300000
38.650000 -182.530000 1850.480000
38.830000 -182.570000 1850.660000
39.040000 -182.610000 1850.810000
39.250000 -182.670000 1850.930000
39.470000 -182.730000 1851.040000
39.690000 -182.800000 1851.120000
39.930000 -182.880000 1851.150000
40.160000 -182.980000 1851.120000
40.390000 -183.080000 1851.040000
40.620000 -183.190000 1850.940000
40.830000 -183.290000 1850.820000
41.010000 -183.380000 1850.680000
41.150000 -183.470000 1850.500000
41.240000 -183.550000 1850.270000
41.310000 -183.620000 1850.030000
41.360000 -183.690000 1849.770000
41.420000 -183.760000 1849.520000
41.480000 -183.820000 1849.280000
41.530000 -183.890000 1849.040000
41.520000 -183.930000 1848.790000
41.470000 -183.960000 1848.540000
41.380000 -183.970000 1848.290000
41.280000 -183.980000 1848.050000
41.160000 -183.980000 1847.820000
41.030000 -183.970000 1847.600000
40.870000 -183.950000 1847.400000
40.680000 -183.910000 1847.230000
40.480000 -183.860000 1847.070000
40.270000 -183.610000 1846.900000
40.040000 -183.530000 1846.840000
39.810000 -183.440000 1846.830000
39.580000 -183.350000 1846.850000
39.350000 -183.260000 1846.910000
39.110000 -183.150000 1847.000000
38.900000 -183.050000 1847.100000
38.700000 -182.950000 1847.240000
38.520000 -182.860000 1847.370000
38.350000 -182.760000 1847.530000
38.210000 -182.670000 1847.720000
38.090000 -182.590000 1847.940000
38.000000 -182.510000 1848.180000
37.950000 -182.440000 1848.420000
37.940000 -182.390000 1848.670000
37.970000 -182.360000 1848.910000
38.030000 -182.330000 1849.170000
38.100000 -182.310000 1849.420000
38.200000 -182.300000 1849.670000
38.330000 -182.300000 1849.900000
38.460000 -182.310000 1850.110000
38.620000 -182.330000 1850.310000
38.790000 -182.360000 1850.490000
38.980000 -182.400000 1850.660000
39.180000 -182.450000 1850.810000
39.390000 -182.500000 1850.930000
39.610000 -182.570000 1851.020000
39.840000 -182.650000 1851.060000
40.070000 -182.730000 1851.050000
40.310000 -182.830000 1851.030000
40.550000 -182.930000 1850.960000
40.760000 -183.030000 1850.870000
40.970000 -183.130000 1850.740000
41.130000 -183.220000 1850.580000
41.270000 -183.310000 1850.400000
41.360000 -183.390000 1850.180000
41.420000 -183.450000 1849.940000
41.460000 -183.520000 1849.680000
41.500000 -183.580000 1849.440000
41.540000 -183.640000 1849.190000
41.560000 -183.700000 1848.950000
41.540000 -183.740000 1848.690000
41.480000 -183.760000 1848.450000
41.400000 -183.780000 1848.200000
41.280000 -183.780000 1847.960000
41.160000 -183.780000 1847.730000
41.010000 -183.760000 1847.520000
40.860000 -183.750000 1847.330000
40.680000 -183.710000 1847.140000
40.480000 -183.660000 1847.000000
40.290000 -183.410000 1846.830000
40.060000 -183.340000 1846.770000
39.830000 -183.250000 1846.770000
39.590000 -183.160000 1846.800000
39.370000 -183.060000 1846.870000
39.140000 -182.960000 1846.970000
38.930000 -182.860000 1847.080000
38.730000 -182.760000 1847.210000
38.550000 -182.660000 1847.360000
38.390000 -182.570000 1847.530000
38.260000 -182.480000 1847.720000
38.140000 -182.400000 1847.950000
38.070000 -182.320000 1848.190000
38.030000 -182.260000 1848.440000
38.020000 -182.210000 1848.670000
38.050000 -182.170000 1848.930000
38.110000 -182.140000 1849.180000
38.190000 -182.120000 1849.430000
38.290000 -182.110000 1849.680000
38.410000 -182.110000 1849.900000
38.550000 -182.130000 1850.100000
38.720000 -182.160000 1850.290000
38.900000 -182.190000 1850.460000
39.090000 -182.230000 1850.620000
39.300000 -182.280000 1850.780000
39.510000 -182.330000 1850.900000
39.730000 -182.400000 1850.980000
39.960000 -182.480000 1851.010000
40.190000 -182.570000 1851.000000
40.430000 -182.660000 1850.960000
40.660000 -182.760000 1850.900000
40.890000 -182.860000 1850.800000
41.090000 -182.960000 1850.680000
41.250000 -183.060000 1850.520000
41.390000 -183.150000 1850.320000
41.470000 -183.220000 1850.110000
41.510000 -183.280000 1849.860000
41.540000 -183.340000 1849.600000
41.560000 -183.400000 1849.350000
41.580000 -183.460000 1849.100000
41.600000 -183.510000 1848.850000
41.570000 -183.550000 1848.610000
41.530000 -183.580000 1848.360000
41.440000 -183.590000 1848.120000
41.330000 -183.600000 1847.880000
41.190000 -183.590000 1847.660000
41.050000 -183.580000 1847.450000
40.890000 -183.550000 1847.250000
40.700000 -183.520000 1847.080000
40.510000 -183.480000 1846.930000
40.350000 -183.230000 1846.770000
40.120000 -183.160000 1846.710000
39.880000 -183.070000 1846.700000
39.650000 -182.980000 1846.740000
39.420000 -182.880000 1846.810000
39.190000 -182.780000 1846.900000
38.980000 -182.680000 1847.020000
38.780000 -182.580000 1847.150000
38.610000 -182.480000 1847.300000
38.450000 -182.390000 1847.470000
38.330000 -182.310000 1847.670000
38.220000 -182.220000 1847.900000
38.150000 -182.150000 1848.140000
38.110000 -182.080000 1848.390000
38.100000 -182.030000 1848.640000
38.120000 -181.990000 1848.880000
38.170000 -181.960000 1849.130000
38.250000 -181.940000 1849.380000
38.360000 -181.940000 1849.620000
38.490000 -181.940000 1849.840000
38.640000 -181.950000 1850.040000
38.800000 -181.980000 1850.220000
38.980000 -182.010000 1850.400000
39.170000 -182.050000 1850.570000
39.370000 -182.090000 1850.720000
39.590000 -182.150000 1850.840000
39.810000 -182.220000 1850.920000
40.050000 -182.300000 1850.950000
40.290000 -182.390000 1850.930000
40.520000 -182.480000 1850.910000
40.750000 -182.580000 1850.850000
40.970000 -182.680000 1850.760000
41.190000 -182.790000 1850.640000
41.380000 -182.890000 1850.490000
41.510000 -182.970000 1850.310000
41.580000 -183.040000 1850.090000
41.610000 -183.100000 1849.840000
41.610000 -183.150000 1849.580000
41.620000 -183.210000 1849.330000
41.640000 -183.260000 1849.080000
41.650000 -183.310000 1848.840000
41.620000 -183.350000 1848.600000
41.550000 -183.370000 1848.340000
41.450000 -183.380000 1848.100000
41.340000 -183.390000 1847.860000
41.220000 -183.390000 1847.630000
41.090000 -183.380000 1847.410000
40.930000 -183.370000 1847.210000
40.750000 -183.330000 1847.030000
40.550000 -183.290000 1846.880000
40.360000 -183.040000 1846.720000
40.110000 -182.960000 1846.670000
39.880000 -182.870000 1846.660000
39.640000 -182.780000 1846.680000
39.410000 -182.680000 1846.750000
39.190000 -182.580000 1846.850000
38.990000 -182.480000 1846.970000
38.800000 -182.380000 1847.120000
38.630000 -182.280000 1847.290000
38.480000 -182.190000 1847.480000
38.360000 -182.100000 1847.670000
38.260000 -182.020000 1847.900000
38.190000 -181.950000 1848.140000
38.160000 -181.890000 1848.390000
38.150000 -181.830000 1848.640000
38.190000 -181.800000 1848.900000
38.250000 -181.770000 1849.140000
38.340000 -181.760000 1849.390000
38.460000 -181.750000 1849.620000
38.590000 -181.760000 1849.820000
38.750000 -181.780000 1850.020000
38.920000 -181.810000 1850.210000
39.100000 -181.840000 1850.380000
39.300000 -181.880000 1850.550000
39.510000 -181.930000 1850.700000
39.730000 -181.990000 1850.790000
39.960000 -182.070000 1850.830000
40.200000 -182.160000 1850.840000
40.440000 -182.250000 1850.830000
40.670000 -182.340000 1850.810000
40.900000 -182.430000 1850.780000
41.130000 -182.520000 1850.730000
41.360000 -182.630000 1850.640000
41.540000 -182.720000 1850.500000
41.620000 -182.800000 1850.260000
41.670000 -182.870000 1850.010000
41.680000 -182.920000 1849.760000
41.690000 -182.970000 1849.520000
41.680000 -183.020000 1849.260000
41.680000 -183.070000 1849.010000
41.660000 -183.110000 1848.760000
41.630000 -183.150000 1848.500000
41.580000 -183.190000 1848.250000
41.510000 -183.210000 1848.010000
41.400000 -183.210000 1847.780000
41.270000 -183.210000 1847.550000
41.100000 -183.190000 1847.330000
40.940000 -183.170000 1847.130000
40.770000 -183.140000 1846.960000
40.580000 -183.100000 1846.810000
40.400000 -182.860000 1846.650000
40.170000 -182.780000 1846.590000
39.930000 -182.690000 1846.580000
39.690000 -182.600000 1846.610000
39.460000 -182.500000 1846.670000
39.230000 -182.400000 1846.770000
39.020000 -182.300000 1846.890000
38.830000 -182.200000 1847.040000
38.670000 -182.100000 1847.220000
38.530000 -182.010000 1847.410000
38.410000 -181.920000 1847.620000
38.310000 -181.840000 1847.850000
38.250000 -181.760000 1848.100000
38.220000 -181.700000 1848.350000
38.210000 -181.650000 1848.610000
38.240000 -181.610000 1848.870000
38.300000 -181.580000 1849.110000
38.390000 -181.570000 1849.360000
38.520000 -181.570000 1849.580000
38.670000 -181.580000 1849.780000
38.830000 -181.600000 1849.980000
39.010000 -181.630000 1850.160000
39.190000 -181.660000 1850.340000
39.390000 -181.700000 1850.500000
39.620000 -181.760000 1850.630000
39.840000 -181.830000 1850.710000
40.070000 -181.900000 1850.750000
40.310000 -181.990000 1850.760000
40.560000 -182.080000 1850.760000
40.790000 -182.170000 1850.760000
41.030000 -182.260000 1850.750000
41.270000 -182.350000 1850.710000
41.490000 -182.450000 1850.630000
41.650000 -182.540000 1850.480000
41.720000 -182.620000 1850.260000
41.750000 -182.680000 1850.010000
41.740000 -182.730000 1849.750000
41.740000 -182.780000 1849.490000
41.730000 -182.820000 1849.240000
41.730000 -182.870000 1849.000000
41.730000 -182.920000 1848.740000
41.690000 -182.960000 1848.480000
41.630000 -182.990000 1848.230000
41.540000 -183.010000 1847.980000
41.430000 -183.020000 1847.740000
41.300000 -183.010000 1847.510000
41.150000 -183.000000 1847.300000
40.980000 -182.980000 1847.090000
40.820000 -182.960000 1846.900000
40.620000 -182.920000 1846.740000
40.500000 -182.690000 1846.630000
40.270000 -182.620000 1846.560000
40.030000 -182.530000 1846.540000
39.790000 -182.440000 1846.560000
39.560000 -182.340000 1846.620000
39.340000 -182.240000 1846.710000
39.130000 -182.140000 1846.830000
38.940000 -182.040000 1846.980000
38.780000 -181.940000 1847.150000
38.630000 -181.850000 1847.340000
38.500000 -181.760000 1847.540000
38.400000 -181.670000 1847.760000
38.320000 -181.590000 1848.000000
38.270000 -181.520000 1848.250000
38.270000 -181.470000 1848.510000
38.290000 -181.430000 1848.770000
38.350000 -181.400000 1849.030000
38.440000 -181.380000 1849.280000
38.550000 -181.370000 1849.510000
38.690000 -181.380000 1849.730000
38.850000 -181.400000 1849.920000
39.030000 -181.430000 1850.100000
39.230000 -181.470000 1850.260000
39.430000 -181.510000 1850.420000
39.650000 -181.570000 1850.540000
39.890000 -181.630000 1850.640000
40.120000 -181.710000 1850.700000
40.360000 -181.800000 1850.720000
40.600000 -181.880000 1850.730000
40.840000 -181.970000 1850.720000
41.070000 -182.060000 1850.720000
41.310000 -182.150000 1850.690000
41.530000 -182.260000 1850.590000
41.690000 -182.350000 1850.440000
41.780000 -182.420000 1850.220000
41.800000 -182.480000 1849.980000
41.810000 -182.540000 1849.730000
41.820000 -182.590000 1849.480000
41.810000 -182.640000 1849.220000
41.800000 -182.690000 1848.960000
41.790000 -182.740000 1848.710000
41.760000 -182.780000 1848.460000
41.710000 -182.810000 1848.210000
41.630000 -182.830000 1847.970000
41.520000 -182.840000 1847.740000
41.380000 -182.830000 1847.520000
41.220000 -182.820000 1847.300000
41.060000 -182.800000 1847.090000
40.900000 -182.780000 1846.900000
40.710000 -182.740000 1846.740000
40.630000 -182.520000 1846.630000
40.410000 -182.460000 1846.540000
40.170000 -182.380000 1846.500000
39.930000 -182.290000 1846.510000
39.700000 -182.190000 1846.550000
39.470000 -182.090000 1846.640000
39.270000 -181.990000 1846.740000
39.070000 -181.890000 1846.890000
38.910000 -181.790000 1847.050000
38.770000 -181.700000 1847.230000
38.640000 -181.610000 1847.440000
38.520000 -181.520000 1847.650000
38.430000 -181.440000 1847.890000
38.370000 -181.370000 1848.130000
38.350000 -181.310000 1848.380000
38.370000 -181.260000 1848.640000
38.420000 -181.230000 1848.890000
38.490000 -181.200000 1849.140000
38.590000 -181.190000 1849.380000
38.730000 -181.200000 1849.590000
38.880000 -181.210000 1849.800000
39.050000 -181.240000 1849.980000
39.240000 -181.270000 1850.150000
39.440000 -181.320000 1850.310000
39.650000 -181.370000 1850.430000
39.880000 -181.430000 1850.540000
40.110000 -181.500000 1850.610000
40.350000 -181.580000 1850.660000
40.590000 -181.670000 1850.700000
40.820000 -181.750000 1850.700000
41.050000 -181.840000 1850.690000
41.290000 -181.930000 1850.650000
41.520000 -182.040000 1850.580000
41.690000 -182.130000 1850.430000
41.810000 -182.210000 1850.240000
41.850000 -182.280000 1850.000000
41.870000 -182.340000 1849.740000
41.880000 -182.400000 1849.490000
41.890000 -182.450000 1849.250000
41.890000 -182.500000 1849.000000
41.870000 -182.550000 1848.740000
41.830000 -182.590000 1848.490000
41.770000 -182.610000 1848.240000
41.700000 -182.640000 1848.000000
41.600000 -182.650000 1847.770000
41.480000 -182.650000 1847.540000
41.330000 -182.640000 1847.320000
41.180000 -182.620000 1847.120000
41.010000 -182.600000 1846.920000
40.820000 -182.570000 1846.750000
40.710000 -182.350000 1846.600000
40.490000 -182.280000 1846.510000
40.240000 -182.200000 1846.470000
40.010000 -182.110000 1846.480000
39.770000 -182.010000 1846.510000
39.550000 -181.910000 1846.590000
39.360000 -181.820000 1846.690000
39.170000 -181.720000 1846.830000
39.010000 -181.620000 1847.000000
38.860000 -181.530000 1847.180000
38.730000 -181.440000 1847.390000
38.620000 -181.350000 1847.600000
38.530000 -181.270000 1847.830000
38.480000 -181.200000 1848.070000
38.440000 -181.140000 1848.320000
38.460000 -181.090000 1848.560000
38.490000 -181.050000 1848.820000
38.560000 -181.030000 1849.060000
38.660000 -181.010000 1849.310000
38.780000 -181.010000 1849.520000
38.940000 -181.030000 1849.720000
39.110000 -181.060000 1849.910000
39.300000 -181.090000 1850.070000
39.500000 -181.130000 1850.220000
39.710000 -181.180000 1850.360000
39.920000 -181.240000 1850.460000
40.160000 -181.310000 1850.560000
40.390000 -181.380000 1850.630000
40.630000 -181.460000 1850.670000
40.860000 -181.550000 1850.690000
41.100000 -181.640000 1850.670000
41.320000 -181.730000 1850.610000
41.530000 -181.830000 1850.530000
41.720000 -181.930000 1850.390000
41.830000 -182.010000 1850.200000
41.890000 -182.090000 1849.960000
41.930000 -182.150000 1849.700000
41.950000 -182.210000 1849.460000
41.970000 -182.270000 1849.220000
41.980000 -182.330000 1848.960000
41.940000 -182.370000 1848.720000
41.900000 -182.400000 1848.470000
41.840000 -182.430000 1848.220000
41.760000 -182.450000 1847.980000
41.660000 -182.460000 1847.740000
41.530000 -182.460000 1847.510000
41.390000 -182.460000 1847.280000
41.250000 -182.450000 1847.070000
41.100000 -182.430000 1846.880000
40.920000 -182.400000 1846.720000
40.640000 -182.120000 1846.520000
40.410000 -182.050000 1846.460000
40.180000 -181.970000 1846.440000
39.950000 -181.870000 1846.480000
39.740000 -181.780000 1846.540000
39.520000 -181.680000 1846.630000
39.320000 -181.580000 1846.750000
39.140000 -181.480000 1846.910000
38.980000 -181.380000 1847.080000
38.840000 -181.290000 1847.270000
38.720000 -181.200000 1847.470000
38.640000 -181.120000 1847.690000
38.580000 -181.050000 1847.920000
38.540000 -180.980000 1848.170000
38.530000 -180.930000 1848.420000
38.550000 -180.880000 1848.670000
38.610000 -180.850000 1848.910000
38.700000 -180.840000 1849.150000
38.820000 -180.840000 1849.370000
38.960000 -180.850000 1849.570000
39.130000 -180.870000 1849.770000
39.300000 -180.900000 1849.940000
39.490000 -180.930000 1850.100000
39.690000 -180.980000 1850.240000
39.910000 -181.030000 1850.370000
40.120000 -181.100000 1850.450000
40.350000 -181.170000 1850.530000
40.590000 -181.250000 1850.580000
40.820000 -181.330000 1850.610000
41.050000 -181.410000 1850.620000
41.280000 -181.510000 1850.600000
41.490000 -181.600000 1850.520000
41.680000 -181.700000 1850.390000
41.810000 -181.790000 1850.210000
41.900000 -181.870000 1849.970000
41.970000 -181.950000 1849.730000
42.030000 -182.020000 1849.480000
42.070000 -182.090000 1849.240000
42.080000 -182.140000 1849.000000
42.050000 -182.180000 1848.750000
42.000000 -182.210000 1848.510000
41.940000 -182.250000 1848.260000
41.870000 -182.270000 1848.020000
41.750000 -182.270000 1847.800000
41.630000 -182.270000 1847.580000
41.500000 -182.270000 1847.350000
41.380000 -182.270000 1847.140000
41.220000 -182.260000 1846.930000
41.050000 -182.230000 1846.750000
40.840000 -182.180000 1846.610000
40.780000 -181.970000 1846.510000
40.560000 -181.900000 1846.450000
40.330000 -181.810000 1846.430000
40.100000 -181.730000 1846.440000
39.880000 -181.630000 1846.500000
39.670000 -181.530000 1846.590000
39.480000 -181.430000 1846.700000
39.290000 -181.330000 1846.840000
39.130000 -181.240000 1846.990000
38.980000 -181.150000 1847.160000
38.860000 -181.060000 1847.350000
38.750000 -180.970000 1847.570000
38.660000 -180.890000 1847.790000
38.610000 -180.820000 1848.030000
38.600000 -180.770000 1848.270000
38.620000 -180.720000 1848.520000
38.670000 -180.690000 1848.770000
38.760000 -180.670000 1849.010000
38.870000 -180.660000 1849.230000
38.990000 -180.660000 1849.450000
39.140000 -180.680000 1849.640000
39.310000 -180.700000 1849.820000
39.490000 -180.740000 1849.990000
39.680000 -180.780000 1850.130000
39.890000 -180.830000 1850.260000
40.110000 -180.890000 1850.370000
40.330000 -180.960000 1850.460000
40.570000 -181.030000 1850.530000
40.810000 -181.110000 1850.570000
41.040000 -181.190000 1850.580000
41.260000 -181.290000 1850.550000
41.470000 -181.380000 1850.470000
41.650000 -181.480000 1850.350000
41.800000 -181.570000 1850.180000
41.910000 -181.660000 1849.970000
42.010000 -181.740000 1849.730000
42.090000 -181.820000 1849.500000
42.130000 -181.890000 1849.260000
42.140000 -181.950000 1849.010000
42.120000 -181.990000 1848.770000
42.080000 -182.030000 1848.530000
42.020000 -182.050000 1848.290000
41.940000 -182.080000 1848.060000
41.840000 -182.090000 1847.830000
41.740000 -182.100000 1847.600000
41.600000 -182.090000 1847.390000
41.460000 -182.080000 1847.180000
41.320000 -182.070000 1846.970000
41.170000 -182.060000 1846.780000
40.990000 -182.020000 1846.620000
40.890000 -181.800000 1846.500000
40.680000 -181.730000 1846.450000
40.450000 -181.650000 1846.420000
40.220000 -181.560000 1846.430000
39.990000 -181.460000 1846.480000
39.780000 -181.360000 1846.560000
39.590000 -181.270000 1846.670000
39.390000 -181.160000 1846.790000
39.230000 -181.070000 1846.940000
39.080000 -180.980000 1847.110000
38.950000 -180.890000 1847.290000
38.840000 -180.800000 1847.490000
38.750000 -180.720000 1847.710000
38.700000 -180.650000 1847.950000
38.680000 -180.590000 1848.190000
38.700000 -180.550000 1848.430000
38.750000 -180.510000 1848.670000
38.820000 -180.490000 1848.910000
38.920000 -180.480000 1849.140000
39.040000 -180.480000 1849.350000
39.190000 -180.490000 1849.560000
39.350000 -180.510000 1849.740000
39.520000 -180.540000 1849.900000
39.710000 -180.580000 1850.050000
39.920000 -180.630000 1850.180000
40.140000 -180.690000 1850.290000
40.360000 -180.760000 1850.380000
40.590000 -180.830000 1850.440000
40.830000 -180.910000 1850.480000
41.050000 -181.000000 1850.480000
41.270000 -181.090000 1850.450000
41.470000 -181.180000 1850.380000
41.660000 -181.280000 1850.270000
41.820000 -181.370000 1850.110000
41.950000 -181.460000 1849.930000
42.070000 -181.550000 1849.720000
42.150000 -181.630000 1849.490000
42.200000 -181.700000 1849.250000
42.220000 -181.760000 1849.010000
42.190000 -181.800000 1848.780000
42.140000 -181.840000 1848.540000
42.080000 -181.860000 1848.300000
42.010000 -181.890000 1848.050000
41.920000 -181.910000 1847.810000
41.830000 -181.920000 1847.580000
41.710000 -181.920000 1847.360000
41.570000 -181.920000 1847.150000
41.430000 -181.910000 1846.960000
41.270000 -181.890000 1846.770000
41.090000 -181.850000 1846.610000
41.030000 -181.640000 1846.490000
40.820000 -181.580000 1846.420000
40.600000 -181.500000 1846.390000
40.360000 -181.400000 1846.400000
40.130000 -181.310000 1846.440000
39.920000 -181.210000 1846.500000
39.720000 -181.120000 1846.590000
39.530000 -181.020000 1846.710000
39.360000 -180.920000 1846.850000
39.220000 -180.830000 1847.020000
39.080000 -180.740000 1847.210000
38.970000 -180.650000 1847.410000
