ply
format ascii 1.0
comment Created by CloudCompare v2.12.4 (Kyiv)
comment Created 2023-10-16T10:58:29
obj_info Generated by CloudCompare!
element vertex 1365
property float x
property float y
property float z
end_header
65.709999 -236.929993 1852.209961 
68.290001 -236.949997 1852.089966 
68.559998 -237.179993 1852.020020 
68.589996 -237.110001 1851.819946 
59.410000 -249.940002 1852.520020 
59.340000 -250.070007 1852.729980 
59.369999 -249.740005 1852.619995 
59.480000 -250.270004 1852.359985 
56.459999 -251.399994 1852.469971 
56.340000 -251.380005 1851.949951 
56.320000 -251.250000 1852.369995 
56.509998 -251.550003 1852.109985 
56.430000 -251.529999 1851.780029 
56.389999 -251.380005 1852.219971 
56.529999 -251.520004 1852.319946 
58.660000 -252.130005 1852.660034 
58.630001 -252.309998 1852.530029 
58.799999 -252.520004 1852.310059 
58.570000 -252.559998 1852.369995 
59.139999 -252.240005 1852.380005 
58.939999 -252.360001 1852.369995 
34.139999 -190.610001 1852.439941 
34.400002 -190.899994 1852.520020 
33.939999 -190.940002 1852.670044 
34.119999 -191.050003 1852.680054 
33.689999 -190.910004 1852.719971 
35.509998 -190.869995 1852.400024 
35.990002 -190.850006 1852.300049 
35.880001 -190.470001 1852.270020 
35.720001 -190.789993 1852.349976 
35.380001 -191.279999 1852.420044 
35.599998 -191.110001 1852.400024 
35.820000 -191.279999 1852.369995 
35.669998 -191.440002 1852.380005 
35.200001 -191.619995 1852.430054 
35.410000 -191.570007 1852.410034 
34.849998 -192.820007 1852.839966 
34.970001 -192.740005 1852.569946 
35.040001 -193.190002 1852.699951 
34.849998 -192.639999 1852.719971 
30.120001 -195.869995 1852.449951 
29.860001 -195.550003 1852.609985 
29.799999 -196.020004 1852.810059 
29.940001 -195.929993 1852.650024 
30.110001 -196.050003 1852.550049 
30.270000 -196.240005 1852.550049 
30.230000 -196.490005 1852.770020 
30.389999 -196.649994 1852.750000 
30.000000 -196.169998 1852.729980 
66.580002 -236.070007 1852.390015 
66.949997 -236.160004 1852.410034 
66.610001 -235.919998 1852.540039 
66.800003 -236.020004 1852.500000 
67.040001 -238.960007 1852.449951 
67.330002 -239.110001 1852.079956 
67.540001 -238.860001 1852.500000 
67.500000 -239.009995 1852.219971 
67.269997 -238.960007 1852.380005 
67.739998 -238.789993 1852.589966 
67.610001 -239.110001 1852.000000 
67.940002 -238.880005 1852.349976 
67.779999 -239.009995 1852.150024 
55.959999 -247.880005 1852.469971 
55.650002 -247.860001 1852.640015 
55.970001 -248.059998 1852.380005 
55.759998 -248.089996 1852.479980 
55.830002 -247.479996 1852.709961 
55.910000 -247.679993 1852.579956 
56.180000 -247.559998 1852.560059 
56.720001 -247.550003 1852.439941 
56.340000 -247.919998 1852.329956 
56.040001 -247.410004 1852.670044 
56.200001 -247.770004 1852.439941 
57.639999 -247.580002 1852.489990 
57.230000 -247.850006 1852.260010 
57.700001 -248.190002 1852.109985 
57.139999 -247.630005 1852.390015 
57.490002 -247.750000 1852.359985 
57.820000 -247.880005 1852.329956 
57.490002 -248.070007 1852.160034 
59.259998 -250.740005 1852.780029 
59.209999 -251.050003 1852.739990 
59.320000 -250.850006 1852.540039 
59.400002 -250.539993 1852.479980 
59.310001 -250.399994 1852.819946 
59.230000 -250.600006 1852.930054 
57.389999 -252.320007 1852.439941 
57.110001 -252.279999 1852.150024 
57.090000 -252.160004 1852.319946 
57.279999 -252.429993 1852.109985 
57.070000 -252.500000 1851.729980 
58.830002 -251.899994 1852.670044 
59.220001 -251.820007 1852.520020 
58.970001 -252.139999 1852.500000 
58.980000 -251.550003 1852.760010 
59.020000 -251.839996 1852.609985 
34.230000 -191.660004 1853.010010 
34.020000 -191.389999 1852.910034 
34.230000 -191.429993 1852.869995 
34.419998 -191.229996 1852.699951 
33.770000 -191.529999 1853.130005 
33.509998 -191.339996 1853.140015 
33.720001 -191.199997 1852.900024 
29.969999 -193.449997 1853.790039 
29.780001 -193.770004 1853.599976 
29.680000 -193.940002 1853.250000 
29.799999 -193.740005 1853.180054 
29.540001 -194.190002 1853.349976 
29.900000 -193.580002 1853.449951 
29.900000 -193.580002 1853.020020 
29.500000 -194.990005 1853.010010 
29.320000 -195.050003 1853.270020 
29.629999 -195.160004 1852.760010 
29.530001 -194.619995 1853.089966 
29.260000 -195.259995 1853.300049 
29.420000 -194.759995 1853.219971 
29.670000 -194.520004 1852.849976 
29.799999 -194.529999 1852.619995 
29.480000 -194.369995 1853.250000 
29.680000 -194.850006 1852.760010 
34.259998 -195.460007 1852.650024 
34.169998 -195.589996 1852.800049 
34.009998 -195.850006 1853.189941 
33.650002 -196.279999 1853.209961 
33.930000 -195.880005 1852.810059 
33.820000 -196.070007 1853.199951 
33.830002 -196.039993 1853.000000 
34.150002 -195.570007 1852.500000 
34.230000 -195.550003 1852.989990 
34.290001 -195.380005 1852.329956 
29.860001 -196.600006 1853.060059 
29.799999 -196.949997 1853.250000 
29.799999 -196.289993 1852.959961 
30.200001 -196.750000 1852.930054 
29.990000 -196.830002 1853.089966 
65.519997 -235.720001 1852.810059 
65.309998 -235.660004 1852.939941 
65.580002 -235.259995 1853.089966 
65.209999 -235.350006 1853.189941 
65.550003 -235.440002 1852.979980 
64.989998 -235.399994 1853.250000 
65.760002 -235.649994 1852.819946 
66.019997 -235.380005 1852.959961 
65.949997 -235.690002 1852.770020 
66.160004 -235.529999 1852.849976 
65.809998 -235.369995 1852.979980 
67.139999 -235.820007 1853.140015 
66.769997 -235.809998 1852.760010 
67.080002 -236.000000 1852.699951 
66.589996 -235.649994 1852.890015 
66.820000 -235.669998 1853.089966 
67.160004 -236.119995 1852.540039 
67.059998 -235.860001 1852.959961 
65.110001 -236.520004 1852.770020 
64.970001 -236.320007 1852.979980 
65.209999 -236.250000 1852.800049 
65.389999 -236.059998 1852.729980 
65.290001 -236.429993 1852.650024 
65.059998 -237.350006 1852.829956 
65.190002 -237.220001 1852.640015 
64.900002 -237.360001 1853.010010 
65.089996 -237.610001 1852.880005 
65.250000 -237.449997 1852.650024 
65.309998 -237.770004 1852.680054 
65.260002 -237.860001 1853.069946 
65.070000 -237.690002 1853.319946 
65.110001 -237.699997 1853.109985 
66.470001 -238.610001 1853.030029 
65.959999 -238.490005 1852.900024 
66.309998 -238.570007 1853.150024 
66.239998 -238.550003 1852.770020 
66.699997 -238.660004 1853.140015 
66.669998 -238.710007 1852.930054 
66.769997 -238.850006 1852.729980 
66.510002 -238.740005 1852.569946 
55.830002 -247.270004 1852.810059 
55.320000 -247.320007 1853.250000 
55.610001 -246.929993 1853.229980 
55.610001 -247.179993 1853.069946 
55.400002 -246.889999 1853.439941 
55.150002 -247.389999 1853.349976 
55.450001 -247.050003 1853.300049 
57.200001 -246.850006 1852.810059 
56.820000 -246.690002 1852.930054 
56.880001 -247.320007 1852.540039 
56.680000 -246.830002 1852.859985 
57.029999 -246.720001 1852.900024 
57.119999 -247.020004 1852.709961 
56.880001 -247.089996 1852.680054 
58.099998 -247.470001 1852.709961 
58.500000 -247.240005 1853.069946 
58.369999 -247.380005 1852.930054 
58.430000 -247.020004 1853.130005 
58.259998 -247.210007 1852.930054 
58.619999 -247.669998 1852.959961 
59.160000 -249.330002 1853.280029 
59.180000 -248.949997 1853.119995 
59.090000 -249.190002 1853.469971 
59.090000 -248.770004 1853.390015 
59.240002 -249.250000 1852.979980 
55.160000 -248.919998 1852.849976 
55.240002 -248.479996 1852.739990 
55.090000 -248.750000 1852.949951 
55.240002 -248.699997 1852.739990 
56.209999 -251.089996 1852.469971 
56.320000 -251.070007 1852.839966 
56.630001 -251.520004 1852.729980 
56.480000 -251.240005 1852.930054 
56.310001 -250.949997 1853.089966 
56.150002 -250.919998 1852.699951 
56.380001 -251.229996 1852.660034 
56.270000 -250.830002 1853.260010 
58.910000 -251.380005 1852.959961 
58.750000 -251.520004 1852.989990 
58.770000 -251.339996 1853.109985 
58.590000 -251.729996 1852.959961 
58.560001 -251.979996 1852.790039 
58.570000 -251.279999 1853.339966 
35.080002 -193.600006 1853.010010 
35.160000 -193.899994 1853.060059 
35.090000 -193.779999 1853.250000 
35.009998 -193.529999 1853.300049 
30.520000 -197.309998 1853.199951 
30.530001 -197.100006 1853.030029 
31.010000 -197.350006 1853.189941 
30.700001 -197.410004 1853.260010 
30.480000 -196.919998 1852.900024 
30.709999 -197.220001 1853.119995 
32.310001 -197.259995 1853.319946 
31.790001 -197.389999 1853.349976 
31.570000 -197.419998 1853.329956 
32.130001 -197.429993 1853.510010 
31.900000 -197.500000 1853.540039 
32.049999 -197.259995 1853.239990 
65.809998 -235.160004 1853.150024 
66.300003 -235.369995 1853.030029 
66.180000 -234.979996 1853.459961 
66.239998 -235.179993 1853.239990 
66.019997 -235.130005 1853.239990 
68.110001 -237.199997 1853.050049 
67.760002 -237.339996 1853.589966 
67.940002 -237.089996 1853.180054 
67.870003 -237.300003 1853.420044 
67.820000 -236.869995 1853.180054 
67.760002 -236.630005 1853.079956 
64.699997 -237.059998 1853.510010 
64.709999 -236.679993 1853.260010 
64.669998 -236.809998 1853.569946 
68.000000 -237.699997 1853.180054 
68.000000 -237.360001 1853.209961 
67.870003 -237.550003 1853.410034 
68.110001 -237.479996 1853.020020 
65.470001 -238.080002 1853.189941 
65.500000 -238.139999 1853.390015 
65.400002 -237.979996 1852.989990 
65.650002 -238.240005 1853.199951 
65.580002 -238.139999 1852.939941 
67.669998 -237.800003 1853.479980 
67.910004 -237.949997 1853.189941 
67.529999 -237.970001 1853.520020 
67.830002 -237.789993 1853.349976 
67.629997 -238.139999 1853.339966 
67.160004 -238.660004 1853.050049 
66.959999 -238.570007 1853.250000 
67.430000 -238.550003 1853.040039 
67.160004 -238.520004 1853.219971 
67.209999 -238.360001 1853.390015 
55.860001 -246.369995 1853.530029 
56.029999 -246.130005 1853.609985 
56.380001 -246.360001 1853.239990 
56.150002 -246.229996 1853.469971 
55.669998 -246.520004 1853.540039 
56.090000 -246.419998 1853.359985 
56.209999 -246.050003 1853.569946 
58.680000 -247.389999 1853.229980 
58.799999 -247.580002 1853.290039 
58.939999 -247.720001 1853.469971 
58.869999 -248.139999 1853.150024 
59.009998 -248.100006 1853.500000 
59.049999 -248.500000 1853.459961 
58.950001 -248.320007 1853.290039 
58.830002 -247.830002 1853.170044 
58.910000 -247.949997 1853.339966 
58.919998 -250.009995 1853.599976 
58.840000 -250.320007 1853.619995 
59.160000 -250.190002 1853.199951 
58.970001 -250.210007 1853.469971 
55.970001 -250.089996 1853.819946 
55.849998 -250.089996 1853.540039 
55.799999 -250.160004 1853.290039 
56.160000 -250.610001 1853.410034 
56.020000 -250.259995 1853.650024 
56.000000 -250.389999 1853.380005 
56.770000 -251.520004 1852.890015 
56.880001 -251.240005 1853.380005 
56.599998 -251.179993 1853.150024 
56.439999 -250.910004 1853.329956 
56.700001 -251.350006 1853.050049 
56.910000 -251.389999 1853.189941 
57.209999 -251.509995 1853.209961 
57.070000 -251.339996 1853.369995 
57.070000 -251.550003 1853.060059 
32.290001 -191.429993 1853.150024 
31.950001 -191.460007 1853.020020 
32.490002 -191.229996 1852.920044 
32.150002 -191.539993 1853.270020 
32.480000 -191.350006 1853.130005 
32.290001 -191.580002 1853.410034 
32.209999 -191.309998 1852.900024 
34.299999 -192.130005 1853.250000 
34.290001 -192.270004 1853.420044 
34.400002 -192.639999 1853.680054 
34.430000 -192.490005 1853.430054 
34.459999 -192.339996 1853.189941 
33.919998 -192.399994 1853.880005 
34.150002 -192.089996 1853.390015 
33.990002 -192.169998 1853.599976 
34.070000 -192.339996 1853.689941 
30.580000 -192.899994 1853.900024 
30.260000 -193.190002 1853.939941 
30.610001 -192.770004 1853.689941 
30.360001 -192.949997 1853.609985 
30.370001 -193.039993 1853.829956 
31.000000 -192.449997 1853.750000 
30.840000 -192.669998 1853.900024 
31.110001 -192.300003 1853.660034 
34.500000 -194.820007 1853.890015 
34.689999 -194.350006 1853.839966 
34.630001 -194.779999 1853.650024 
29.209999 -195.839996 1853.420044 
29.230000 -196.100006 1853.439941 
29.389999 -195.970001 1853.250000 
29.230000 -195.600006 1853.359985 
33.279999 -196.639999 1853.359985 
33.110001 -196.940002 1853.640015 
32.990002 -196.910004 1853.430054 
32.869999 -197.169998 1853.719971 
33.040001 -197.169998 1853.939941 
32.750000 -197.050003 1853.349976 
32.750000 -197.160004 1853.530029 
32.580002 -197.139999 1853.290039 
33.320000 -196.740005 1853.579956 
65.750000 -234.839996 1853.449951 
65.620003 -235.020004 1853.239990 
65.550003 -234.690002 1853.510010 
65.930000 -234.669998 1853.660034 
65.419998 -234.470001 1853.660034 
65.529999 -234.850006 1853.369995 
66.000000 -234.850006 1853.520020 
65.220001 -234.800003 1853.520020 
65.419998 -235.169998 1853.219971 
65.360001 -235.009995 1853.339966 
67.669998 -236.720001 1853.500000 
67.690002 -236.949997 1853.469971 
67.680000 -236.690002 1853.300049 
58.779999 -251.059998 1853.229980 
59.090000 -250.929993 1852.979980 
58.900002 -251.160004 1853.079956 
59.049999 -251.160004 1852.930054 
57.630001 -251.050003 1853.739990 
57.610001 -251.619995 1853.239990 
57.439999 -251.500000 1853.310059 
57.610001 -251.250000 1853.560059 
57.320000 -251.300003 1853.459961 
57.660000 -251.470001 1853.380005 
57.419998 -251.080002 1853.670044 
33.290001 -191.809998 1853.660034 
33.250000 -191.990005 1853.839966 
33.570000 -192.039993 1853.760010 
34.630001 -193.100006 1853.750000 
34.619999 -193.410004 1853.880005 
34.459999 -193.479996 1854.050049 
34.470001 -193.220001 1853.939941 
29.170000 -195.070007 1853.510010 
29.180000 -194.820007 1853.589966 
29.280001 -194.679993 1853.469971 
30.049999 -197.580002 1853.569946 
29.820000 -197.529999 1853.609985 
30.180000 -197.419998 1853.420044 
30.360001 -197.570007 1853.449951 
30.420000 -198.119995 1853.930054 
30.180000 -197.960007 1853.829956 
30.330000 -198.309998 1854.130005 
30.370001 -197.809998 1853.650024 
29.799999 -197.889999 1853.839966 
66.010002 -234.449997 1853.839966 
65.769997 -234.509995 1853.739990 
65.919998 -234.160004 1854.040039 
65.589996 -234.339996 1853.819946 
67.290001 -235.960007 1853.680054 
67.410004 -236.139999 1853.800049 
67.379997 -236.089996 1854.020020 
64.550003 -236.389999 1853.750000 
64.639999 -236.399994 1853.410034 
64.580002 -236.839996 1853.930054 
64.599998 -236.699997 1853.750000 
64.470001 -236.320007 1853.949951 
64.419998 -236.389999 1854.170044 
64.349998 -236.009995 1854.060059 
64.309998 -235.789993 1853.959961 
64.480003 -236.119995 1853.699951 
67.589996 -237.539993 1853.680054 
67.330002 -237.740005 1853.739990 
67.230003 -237.550003 1853.859985 
57.740002 -245.779999 1853.689941 
57.480000 -245.919998 1853.500000 
57.910000 -245.369995 1854.060059 
57.910000 -245.720001 1853.790039 
57.990002 -245.990005 1853.630005 
57.750000 -245.550003 1853.869995 
58.480000 -246.500000 1853.880005 
58.470001 -246.759995 1853.500000 
58.410000 -246.460007 1853.689941 
58.410000 -246.820007 1853.229980 
54.950001 -247.520004 1853.750000 
54.919998 -247.759995 1854.030029 
54.980000 -248.020004 1853.810059 
55.009998 -247.589996 1853.500000 
55.009998 -247.800003 1853.560059 
54.930000 -248.149994 1854.109985 
58.970001 -248.139999 1853.719971 
58.880001 -248.149994 1853.959961 
59.000000 -247.600006 1853.680054 
58.820000 -248.419998 1854.109985 
58.919998 -247.820007 1853.880005 
58.980000 -248.360001 1853.680054 
58.910000 -248.339996 1853.869995 
59.020000 -247.830002 1853.619995 
58.820000 -249.559998 1853.890015 
58.660000 -249.919998 1854.000000 
58.650002 -250.130005 1853.949951 
58.889999 -249.750000 1853.739990 
58.770000 -249.990005 1853.829956 
56.820000 -250.600006 1853.989990 
56.669998 -250.800003 1853.650024 
56.389999 -250.750000 1853.459961 
56.669998 -250.990005 1853.469971 
56.509998 -250.630005 1853.680054 
57.480000 -250.940002 1853.819946 
57.099998 -250.770004 1853.920044 
57.070000 -250.949997 1853.739990 
56.930000 -251.070007 1853.599976 
57.049999 -250.619995 1854.050049 
32.200001 -192.320007 1854.260010 
32.330002 -191.789993 1853.709961 
32.299999 -192.110001 1854.050049 
32.450001 -192.259995 1854.209961 
32.419998 -191.919998 1853.859985 
34.470001 -195.139999 1853.510010 
34.500000 -194.990005 1853.719971 
34.369999 -195.050003 1853.900024 
28.719999 -196.779999 1854.010010 
28.740000 -196.570007 1853.959961 
28.860001 -196.960007 1853.920044 
32.320000 -197.779999 1854.280029 
32.400002 -197.580002 1854.000000 
32.630001 -197.649994 1854.339966 
32.450001 -197.820007 1854.479980 
64.910004 -233.720001 1854.199951 
65.099998 -233.889999 1854.079956 
65.320000 -233.990005 1853.989990 
64.849998 -233.910004 1854.069946 
65.330002 -233.630005 1854.239990 
65.459999 -233.850006 1854.089966 
65.050003 -234.070007 1853.949951 
64.849998 -234.160004 1853.949951 
64.699997 -234.320007 1853.939941 
65.059998 -234.339996 1853.829956 
64.660004 -234.029999 1854.050049 
64.410004 -234.869995 1853.959961 
64.180000 -235.050003 1854.199951 
64.300003 -235.500000 1853.959961 
64.169998 -235.309998 1854.150024 
64.400002 -235.070007 1853.930054 
64.019997 -235.160004 1854.369995 
67.309998 -236.220001 1854.189941 
67.489998 -236.429993 1853.979980 
67.139999 -236.050003 1854.380005 
66.709999 -236.350006 1854.760010 
67.190002 -237.039993 1854.150024 
66.919998 -237.039993 1854.300049 
66.959999 -237.429993 1854.069946 
67.230003 -237.250000 1854.010010 
66.760002 -236.720001 1854.560059 
57.560001 -245.080002 1854.170044 
57.080002 -245.160004 1853.989990 
57.230000 -244.710007 1854.310059 
57.369999 -244.910004 1854.229980 
57.119999 -244.850006 1854.199951 
57.240002 -245.059998 1854.099976 
55.439999 -246.240005 1853.890015 
55.549999 -245.880005 1854.109985 
55.810001 -245.919998 1853.910034 
55.580002 -246.300003 1853.760010 
55.849998 -246.169998 1853.689941 
56.040001 -245.919998 1853.760010 
55.040001 -246.899994 1854.099976 
55.240002 -246.789993 1853.810059 
54.970001 -246.750000 1854.329956 
54.950001 -247.089996 1854.150024 
55.130001 -246.960007 1853.900024 
54.900002 -248.630005 1853.479980 
54.919998 -248.440002 1853.869995 
54.980000 -248.619995 1853.780029 
55.119999 -248.809998 1854.000000 
55.639999 -249.699997 1853.859985 
55.720001 -249.830002 1853.729980 
55.849998 -249.889999 1853.920044 
55.599998 -249.960007 1853.160034 
58.419998 -250.380005 1853.979980 
58.150002 -250.470001 1854.060059 
58.049999 -250.360001 1854.199951 
57.950001 -250.630005 1854.030029 
32.080002 -192.759995 1854.969971 
31.799999 -192.779999 1854.900024 
31.910000 -192.669998 1854.760010 
31.950001 -192.520004 1854.510010 
32.540001 -192.389999 1854.390015 
32.779999 -192.570007 1854.640015 
32.889999 -192.360001 1854.390015 
32.590000 -192.539993 1854.579956 
32.709999 -192.250000 1854.229980 
33.709999 -192.720001 1854.380005 
33.740002 -192.389999 1854.030029 
33.639999 -192.490005 1854.199951 
33.439999 -192.509995 1854.349976 
30.660000 -193.020004 1854.449951 
31.010000 -192.839996 1854.500000 
30.930000 -192.990005 1854.709961 
30.799999 -192.880005 1854.319946 
30.730000 -193.080002 1854.660034 
28.930000 -194.720001 1854.209961 
29.010000 -194.479996 1854.520020 
29.129999 -194.320007 1854.449951 
28.910000 -194.559998 1854.780029 
29.080000 -194.470001 1854.209961 
34.080002 -194.279999 1854.640015 
34.209999 -194.300003 1854.390015 
34.070000 -194.490005 1854.650024 
34.189999 -194.770004 1854.410034 
34.180000 -193.990005 1854.479980 
33.959999 -194.580002 1854.849976 
34.200001 -195.110001 1854.319946 
34.000000 -195.330002 1854.619995 
34.090000 -194.869995 1854.560059 
28.500000 -195.550003 1854.589966 
28.790001 -195.110001 1854.189941 
28.639999 -195.509995 1854.329956 
28.639999 -195.309998 1854.410034 
33.349998 -196.839996 1854.359985 
33.599998 -196.440002 1854.060059 
33.759998 -196.229996 1854.140015 
33.430000 -196.649994 1853.849976 
33.369999 -196.759995 1854.060059 
33.349998 -196.889999 1854.609985 
33.490002 -196.630005 1854.239990 
33.639999 -196.429993 1854.380005 
33.509998 -196.639999 1854.500000 
33.509998 -196.509995 1853.689941 
33.490002 -196.509995 1853.449951 
33.650002 -196.309998 1853.670044 
33.139999 -197.149994 1854.469971 
33.220001 -196.990005 1854.160034 
33.009998 -197.320007 1854.369995 
33.290001 -196.850006 1853.880005 
33.040001 -197.330002 1854.750000 
28.799999 -197.500000 1854.180054 
28.350000 -197.529999 1854.640015 
28.469999 -197.820007 1854.699951 
28.680000 -198.199997 1854.709961 
28.590000 -197.990005 1854.680054 
28.730000 -197.830002 1854.439941 
28.530001 -197.550003 1854.469971 
28.910000 -197.369995 1853.989990 
29.170000 -199.240005 1855.209961 
29.309999 -198.360001 1854.449951 
28.920000 -198.649994 1854.880005 
29.480000 -198.179993 1854.229980 
29.110001 -198.750000 1854.859985 
29.160000 -198.490005 1854.630005 
29.360001 -198.860001 1854.819946 
29.440001 -198.570007 1854.550049 
28.990000 -198.919998 1855.060059 
64.220001 -232.710007 1854.650024 
64.449997 -232.699997 1854.550049 
64.570000 -232.929993 1854.439941 
64.010002 -233.119995 1854.640015 
64.360001 -232.940002 1854.530029 
64.029999 -232.919998 1854.680054 
63.970001 -233.860001 1854.520020 
64.230003 -233.789993 1854.349976 
63.830002 -234.039993 1854.609985 
63.880001 -233.520004 1854.619995 
63.820000 -233.320007 1854.680054 
64.070000 -233.570007 1854.479980 
63.919998 -234.539993 1854.469971 
64.150002 -234.669998 1854.250000 
63.900002 -234.850006 1854.510010 
66.570000 -234.639999 1854.310059 
66.699997 -234.880005 1854.130005 
66.809998 -235.070007 1853.979980 
66.589996 -234.960007 1853.859985 
64.269997 -235.729996 1854.239990 
64.269997 -235.880005 1854.489990 
64.309998 -235.970001 1854.290039 
64.230003 -235.770004 1854.670044 
64.209999 -235.779999 1854.910034 
67.040001 -235.369995 1854.189941 
67.059998 -235.630005 1854.520020 
66.080002 -237.410004 1854.349976 
65.760002 -237.660004 1854.099976 
66.129997 -237.899994 1853.920044 
65.739998 -237.350006 1854.380005 
66.040001 -237.720001 1854.069946 
66.000000 -237.240005 1854.489990 
65.889999 -236.960007 1854.739990 
65.959999 -237.559998 1854.209961 
66.779999 -237.570007 1854.060059 
66.419998 -237.479996 1854.209961 
66.279999 -237.210007 1854.459961 
65.970001 -236.750000 1854.900024 
66.080002 -237.050003 1854.640015 
66.349998 -237.669998 1854.079956 
66.559998 -237.330002 1854.300049 
66.580002 -237.630005 1854.060059 
66.650002 -237.009995 1854.449951 
66.419998 -236.630005 1854.760010 
66.739998 -237.399994 1854.199951 
66.190002 -236.789993 1854.780029 
66.500000 -237.149994 1854.439941 
66.419998 -236.850006 1854.640015 
66.739998 -237.149994 1854.329956 
66.680000 -236.539993 1854.689941 
56.880001 -244.750000 1854.310059 
56.880001 -245.179993 1854.010010 
56.680000 -245.050003 1854.140015 
56.430000 -244.830002 1854.349976 
56.680000 -244.830002 1854.290039 
56.910000 -244.929993 1854.180054 
56.360001 -249.720001 1854.500000 
56.230000 -249.419998 1854.670044 
56.180000 -249.699997 1854.410034 
56.680000 -249.929993 1854.500000 
56.400002 -249.539993 1854.680054 
56.480000 -249.869995 1854.439941 
56.240002 -249.910004 1854.270020 
58.310001 -248.440002 1854.880005 
58.549999 -248.429993 1854.599976 
58.349998 -248.220001 1854.949951 
58.630001 -248.589996 1854.420044 
58.220001 -248.679993 1854.869995 
58.400002 -248.669998 1854.660034 
32.389999 -192.559998 1854.609985 
32.680000 -192.679993 1854.849976 
32.410000 -192.770004 1855.060059 
32.240002 -192.490005 1854.479980 
32.230000 -192.660004 1854.829956 
33.869999 -196.000000 1854.219971 
33.290001 -196.929993 1854.939941 
33.650002 -196.130005 1854.819946 
33.689999 -196.210007 1854.560059 
33.540001 -196.330002 1854.910034 
33.549999 -196.470001 1854.670044 
33.840000 -195.929993 1854.430054 
33.860001 -195.720001 1854.680054 
33.169998 -197.149994 1855.030029 
33.770000 -195.850006 1854.810059 
33.549999 -196.169998 1855.109985 
33.279999 -196.669998 1855.369995 
33.200001 -196.949997 1855.260010 
33.410000 -196.419998 1855.250000 
33.360001 -196.600006 1855.170044 
33.419998 -196.580002 1854.979980 
28.299999 -197.979996 1854.959961 
28.110001 -197.800003 1855.040039 
28.240000 -198.179993 1855.150024 
28.480000 -198.259995 1854.959961 
28.309999 -197.690002 1854.770020 
30.879999 -198.740005 1854.630005 
31.139999 -198.720001 1854.680054 
31.379999 -198.570007 1854.599976 
30.480000 -198.740005 1854.520020 
66.160004 -233.850006 1854.630005 
63.880001 -234.940002 1854.719971 
63.730000 -234.440002 1854.849976 
63.799999 -234.759995 1854.900024 
63.750000 -234.809998 1855.170044 
66.589996 -234.740005 1854.920044 
66.570000 -234.960007 1855.119995 
66.730003 -235.179993 1854.930054 
57.900002 -244.100006 1855.010010 
58.020000 -243.830002 1855.319946 
57.910000 -243.630005 1855.349976 
58.150002 -244.130005 1855.270020 
57.849998 -243.910004 1855.089966 
56.459999 -244.660004 1854.459961 
56.770000 -244.160004 1854.630005 
56.630001 -244.389999 1854.550049 
56.840000 -244.360001 1854.530029 
57.070000 -244.550003 1854.400024 
56.709999 -243.880005 1854.770020 
58.090000 -244.940002 1854.619995 
57.930000 -244.660004 1854.630005 
58.000000 -244.490005 1854.880005 
57.849998 -244.470001 1854.670044 
58.160000 -244.690002 1854.939941 
58.340000 -244.919998 1855.000000 
58.599998 -245.720001 1854.689941 
58.580002 -245.380005 1855.000000 
58.639999 -246.130005 1854.469971 
58.689999 -246.500000 1854.380005 
54.980000 -247.220001 1854.839966 
54.889999 -247.100006 1854.410034 
54.910000 -246.940002 1854.660034 
54.950001 -247.229996 1854.640015 
54.990002 -247.410004 1854.719971 
29.850000 -193.699997 1854.869995 
29.600000 -193.860001 1854.680054 
29.400000 -193.979996 1854.439941 
30.040001 -193.559998 1854.800049 
29.559999 -193.899994 1854.890015 
28.340000 -195.360001 1855.160034 
28.520000 -194.910004 1855.420044 
28.400000 -195.119995 1855.410034 
28.510000 -195.130005 1855.060059 
28.680000 -194.729996 1855.250000 
31.280001 -198.869995 1854.910034 
31.520000 -198.690002 1854.810059 
31.680000 -198.550003 1854.729980 
31.610001 -198.889999 1855.140015 
64.440002 -230.949997 1855.069946 
64.610001 -231.270004 1854.949951 
64.629997 -231.479996 1854.869995 
64.830002 -231.360001 1854.890015 
64.379997 -230.559998 1855.199951 
64.809998 -230.300003 1855.209961 
64.349998 -230.270004 1855.290039 
64.830002 -230.720001 1855.079956 
64.989998 -230.399994 1855.150024 
65.000000 -230.160004 1855.219971 
64.730003 -230.960007 1855.020020 
64.910004 -229.899994 1855.310059 
64.519997 -230.410004 1855.219971 
64.629997 -230.600006 1855.150024 
64.650002 -230.070007 1855.300049 
64.180000 -230.399994 1855.280029 
63.660000 -233.710007 1855.430054 
63.700001 -233.770004 1855.010010 
63.730000 -233.820007 1854.729980 
63.720001 -233.570007 1855.030029 
64.849998 -236.449997 1854.900024 
64.680000 -236.570007 1854.530029 
64.980003 -236.750000 1854.750000 
64.820000 -236.589996 1854.699951 
55.400002 -244.320007 1855.239990 
55.290001 -244.630005 1855.140015 
55.580002 -244.259995 1855.060059 
55.500000 -244.110001 1855.250000 
55.470001 -244.550003 1855.000000 
54.930000 -246.520004 1855.079956 
55.020000 -246.589996 1855.510010 
54.910000 -246.050003 1855.150024 
54.869999 -246.419998 1854.790039 
54.980000 -246.690002 1855.239990 
54.970001 -246.320007 1855.319946 
57.709999 -248.089996 1855.599976 
57.840000 -248.210007 1855.369995 
58.000000 -247.960007 1855.489990 
57.830002 -247.869995 1855.729980 
57.500000 -248.250000 1855.599976 
56.639999 -248.899994 1855.130005 
56.529999 -249.179993 1854.890015 
56.790001 -249.190002 1854.920044 
56.430000 -248.869995 1855.119995 
56.290001 -249.149994 1854.869995 
30.160000 -193.710007 1855.540039 
30.440001 -193.550003 1855.410034 
33.240002 -193.619995 1855.339966 
33.299999 -193.860001 1855.410034 
33.459999 -193.710007 1855.239990 
33.270000 -194.270004 1855.619995 
23.690001 -198.440002 1855.469971 
23.490000 -198.169998 1855.449951 
23.990000 -197.940002 1855.640015 
23.590000 -198.690002 1855.400024 
23.799999 -197.970001 1855.569946 
23.309999 -197.940002 1855.430054 
23.770000 -198.250000 1855.520020 
23.450001 -198.380005 1855.400024 
18.590000 -197.339996 1855.239990 
17.969999 -197.009995 1855.310059 
18.280001 -197.330002 1855.250000 
17.950001 -197.539993 1855.229980 
18.200001 -197.550003 1855.219971 
18.719999 -197.089996 1855.270020 
18.250000 -197.039993 1855.290039 
18.420000 -197.149994 1855.270020 
18.059999 -197.240005 1855.270020 
17.870001 -197.759995 1855.199951 
14.140000 -198.919998 1855.619995 
13.920000 -199.190002 1855.729980 
13.910000 -198.979996 1855.689941 
14.210000 -199.479996 1855.729980 
13.700000 -198.929993 1855.729980 
16.620001 -199.869995 1855.250000 
16.309999 -199.690002 1855.280029 
16.070000 -199.570007 1855.310059 
16.639999 -199.669998 1855.239990 
16.180000 -199.860001 1855.310059 
15.950000 -199.949997 1855.349976 
16.450001 -199.490005 1855.250000 
16.900000 -199.970001 1855.209961 
16.150000 -199.160004 1855.280029 
14.960000 -198.699997 1855.420044 
14.480000 -199.309998 1855.640015 
14.630000 -199.039993 1855.550049 
14.260000 -199.110001 1855.630005 
14.310000 -198.740005 1855.540039 
15.570000 -198.979996 1855.369995 
15.320000 -198.850006 1855.390015 
15.120000 -198.839996 1855.420044 
14.510000 -198.679993 1855.489990 
15.350000 -199.139999 1855.449951 
14.710000 -199.229996 1855.579956 
14.870000 -199.080002 1855.520020 
15.760000 -198.919998 1855.329956 
14.420000 -198.919998 1855.560059 
14.680000 -198.830002 1855.500000 
23.080000 -198.779999 1855.329956 
23.280001 -198.479996 1855.359985 
22.700001 -199.149994 1855.280029 
23.049999 -199.009995 1855.310059 
22.809999 -198.979996 1855.300049 
22.559999 -199.570007 1855.239990 
22.730000 -199.389999 1855.270020 
22.900000 -199.169998 1855.290039 
22.930000 -198.610001 1855.329956 
24.320000 -201.889999 1855.250000 
24.080000 -201.809998 1855.239990 
23.969999 -201.029999 1855.280029 
24.139999 -201.169998 1855.280029 
24.770000 -201.460007 1855.310059 
24.770000 -201.119995 1855.329956 
24.320000 -201.630005 1855.270020 
24.350000 -201.059998 1855.300049 
23.889999 -201.250000 1855.260010 
24.040001 -201.399994 1855.260010 
24.270000 -202.289993 1855.229980 
24.330000 -201.289993 1855.290039 
24.620001 -201.270004 1855.310059 
24.530001 -201.729996 1855.280029 
24.120001 -201.610001 1855.260010 
17.120001 -200.279999 1855.189941 
16.750000 -200.470001 1855.199951 
17.309999 -200.589996 1855.180054 
16.990000 -200.729996 1855.180054 
16.719999 -200.750000 1855.189941 
17.160000 -201.160004 1855.170044 
17.690001 -201.119995 1855.150024 
16.459999 -200.919998 1855.189941 
17.320000 -201.009995 1855.170044 
17.940001 -201.160004 1855.150024 
16.600000 -201.070007 1855.180054 
17.330000 -200.380005 1855.180054 
16.910000 -201.179993 1855.170044 
16.510000 -200.720001 1855.189941 
17.420000 -200.830002 1855.170044 
17.209999 -200.800003 1855.170044 
25.570000 -202.179993 1855.349976 
26.059999 -202.419998 1855.479980 
25.760000 -202.100006 1855.400024 
26.000000 -201.929993 1855.459961 
26.110001 -202.179993 1855.489990 
26.350000 -202.460007 1855.560059 
25.610001 -202.539993 1855.359985 
25.780001 -201.889999 1855.400024 
26.520000 -203.309998 1855.589966 
26.230000 -203.259995 1855.459961 
26.420000 -203.839996 1855.479980 
26.420000 -203.529999 1855.520020 
26.780001 -203.389999 1855.699951 
26.660000 -204.070007 1855.599976 
26.990000 -204.050003 1855.810059 
26.700001 -203.750000 1855.630005 
26.580000 -205.419998 1855.469971 
26.639999 -205.179993 1855.510010 
26.850000 -204.949997 1855.589966 
26.879999 -205.330002 1855.550049 
26.980000 -206.119995 1855.500000 
26.790001 -206.259995 1855.430054 
27.120001 -205.070007 1855.640015 
26.360001 -205.330002 1855.420044 
26.879999 -205.770004 1855.510010 
26.690001 -206.050003 1855.430054 
26.389999 -205.080002 1855.449951 
26.650000 -204.979996 1855.530029 
27.040001 -205.539993 1855.569946 
26.570000 -205.800003 1855.420044 
27.209999 -205.309998 1855.640015 
26.209999 -209.320007 1855.359985 
25.650000 -209.270004 1855.310059 
25.840000 -209.009995 1855.319946 
26.250000 -208.529999 1855.329956 
25.860001 -209.369995 1855.329956 
26.020000 -209.550003 1855.349976 
25.790001 -208.490005 1855.300049 
25.940001 -209.770004 1855.349976 
26.090000 -209.130005 1855.339966 
26.030001 -208.500000 1855.319946 
25.540001 -209.020004 1855.300049 
26.420000 -208.779999 1855.349976 
25.860001 -208.779999 1855.310059 
25.440001 -208.600006 1855.280029 
26.160000 -208.710007 1855.329956 
26.190001 -208.940002 1855.339966 
26.500000 -208.570007 1855.349976 
26.690001 -207.009995 1855.390015 
26.510000 -207.479996 1855.359985 
26.309999 -206.759995 1855.359985 
26.280001 -206.990005 1855.349976 
26.280001 -207.300003 1855.339966 
26.020000 -206.690002 1855.329956 
26.750000 -206.559998 1855.410034 
25.610001 -205.839996 1855.310059 
25.660000 -205.440002 1855.329956 
26.290001 -206.139999 1855.380005 
26.020000 -206.460007 1855.339966 
26.719999 -207.899994 1855.369995 
25.750000 -206.169998 1855.319946 
25.420000 -205.330002 1855.310059 
26.549999 -206.740005 1855.390015 
26.469999 -207.720001 1855.349976 
26.090000 -206.220001 1855.349976 
25.830000 -205.979996 1855.329956 
26.760000 -207.449997 1855.390015 
25.750000 -205.669998 1855.329956 
26.590000 -206.360001 1855.400024 
26.750000 -206.800003 1855.410034 
26.309999 -206.429993 1855.369995 
26.100000 -206.880005 1855.339966 
26.719999 -208.880005 1855.410034 
26.570000 -209.110001 1855.400024 
26.270000 -209.639999 1855.390015 
26.570000 -209.490005 1855.430054 
26.410000 -209.270004 1855.380005 
26.059999 -209.929993 1855.369995 
26.700001 -208.679993 1855.390015 
27.450001 -207.740005 1855.630005 
27.410000 -208.009995 1855.660034 
26.940001 -208.080002 1855.439941 
27.290001 -207.589996 1855.520020 
27.070000 -207.899994 1855.469971 
25.850000 -211.750000 1855.420044 
26.219999 -211.320007 1855.469971 
26.090000 -211.479996 1855.459961 
25.590000 -211.949997 1855.390015 
15.940000 -211.240005 1855.319946 
17.010000 -212.259995 1855.260010 
16.450001 -211.660004 1855.290039 
16.730000 -211.800003 1855.270020 
16.270000 -211.240005 1855.290039 
15.860000 -211.029999 1855.319946 
16.040001 -210.899994 1855.300049 
16.070000 -211.399994 1855.310059 
15.780000 -211.399994 1855.339966 
15.680000 -210.710007 1855.329956 
16.440001 -211.949997 1855.300049 
17.299999 -212.550003 1855.250000 
16.420000 -211.410004 1855.290039 
15.760000 -210.509995 1855.310059 
16.129999 -211.759995 1855.319946 
16.740000 -212.059998 1855.280029 
17.540001 -212.710007 1855.229980 
25.990000 -212.070007 1855.469971 
26.280001 -212.070007 1855.619995 
26.450001 -212.369995 1855.709961 
26.139999 -212.460007 1855.540039 
24.719999 -212.789993 1855.329956 
24.650000 -213.350006 1855.349976 
23.610001 -213.970001 1855.290039 
23.290001 -214.380005 1855.280029 
23.930000 -213.899994 1855.310059 
24.200001 -214.259995 1855.349976 
23.370001 -214.130005 1855.280029 
23.660000 -213.770004 1855.280029 
24.410000 -213.910004 1855.349976 
24.790001 -213.020004 1855.339966 
23.990000 -214.119995 1855.329956 
23.639999 -214.240005 1855.300049 
24.500000 -213.020004 1855.319946 
24.080000 -213.679993 1855.319946 
23.160000 -214.139999 1855.260010 
24.360001 -213.600006 1855.329956 
24.260000 -213.250000 1855.310059 
23.879999 -214.419998 1855.329956 
24.920000 -212.619995 1855.339966 
22.930000 -214.360001 1855.250000 
25.110001 -212.270004 1855.339966 
19.350000 -215.179993 1855.339966 
19.639999 -215.589996 1855.410034 
19.370001 -215.399994 1855.369995 
19.780001 -214.910004 1855.319946 
19.559999 -215.250000 1855.359985 
65.250000 -230.309998 1855.260010 
65.480003 -230.309998 1855.339966 
65.029999 -231.000000 1855.000000 
65.169998 -230.729996 1855.119995 
65.239998 -230.520004 1855.199951 
65.160004 -229.949997 1855.319946 
65.150002 -231.229996 1854.989990 
64.589996 -229.770004 1855.359985 
65.010002 -229.710007 1855.339966 
64.459999 -229.460007 1855.420044 
64.360001 -229.669998 1855.400024 
64.699997 -229.539993 1855.390015 
64.320000 -230.059998 1855.339966 
65.970001 -231.250000 1855.469971 
65.830002 -231.389999 1855.270020 
66.040001 -231.100006 1855.599976 
65.849998 -231.059998 1855.390015 
65.730003 -231.559998 1855.109985 
65.660004 -231.009995 1855.209961 
65.709999 -230.789993 1855.329956 
65.970001 -230.789993 1855.609985 
65.750000 -231.190002 1855.250000 
65.959999 -231.910004 1855.189941 
66.070000 -231.500000 1855.469971 
66.139999 -231.960007 1855.359985 
65.980003 -231.619995 1855.329956 
66.180000 -231.399994 1855.609985 
63.840000 -232.089996 1855.209961 
63.730000 -231.990005 1855.369995 
63.680000 -232.380005 1855.459961 
63.889999 -232.380005 1855.140015 
63.770000 -231.740005 1855.319946 
63.990002 -232.130005 1854.969971 
55.590000 -243.600006 1855.400024 
55.779999 -243.750000 1855.160034 
56.160000 -243.110001 1855.310059 
56.580002 -243.070007 1855.300049 
56.990002 -243.020004 1855.339966 
56.730000 -243.529999 1854.989990 
56.529999 -243.350006 1855.109985 
56.779999 -243.289993 1855.150024 
56.380001 -243.029999 1855.319946 
55.049999 -245.199997 1855.569946 
55.189999 -245.139999 1855.109985 
55.029999 -245.539993 1855.209961 
54.959999 -245.490005 1855.510010 
55.119999 -245.160004 1855.369995 
55.099998 -245.330002 1855.219971 
54.990002 -245.190002 1855.780029 
29.870001 -193.929993 1855.760010 
29.410000 -194.139999 1855.890015 
29.530001 -194.059998 1855.719971 
29.000000 -194.399994 1855.670044 
28.709999 -194.649994 1855.640015 
28.049999 -195.690002 1855.439941 
27.920000 -196.160004 1855.310059 
27.920000 -195.899994 1855.530029 
27.950001 -196.330002 1855.089966 
28.120001 -195.830002 1855.150024 
19.320000 -196.440002 1855.550049 
19.040001 -196.289993 1855.640015 
19.639999 -196.369995 1855.699951 
19.809999 -196.300003 1855.790039 
19.530001 -196.539993 1855.510010 
19.889999 -196.149994 1855.949951 
19.360001 -196.199997 1855.800049 
27.799999 -196.110001 1855.709961 
27.840000 -196.190002 1855.500000 
27.740000 -196.389999 1855.630005 
27.690001 -196.330002 1855.869995 
33.049999 -197.190002 1855.699951 
32.959999 -197.500000 1855.750000 
33.139999 -196.949997 1855.530029 
33.099998 -197.139999 1855.410034 
33.049999 -197.339996 1855.329956 
31.170000 -199.240005 1855.339966 
31.510000 -199.300003 1855.619995 
31.510000 -199.050003 1855.290039 
31.010000 -199.070007 1855.010010 
31.360001 -199.210007 1855.410034 
29.580000 -199.970001 1855.819946 
29.820000 -199.649994 1855.540039 
29.940001 -199.860001 1855.719971 
30.180000 -199.720001 1855.579956 
29.370001 -199.729996 1855.619995 
29.379999 -199.509995 1855.430054 
29.559999 -199.669998 1855.569946 
26.620001 -202.919998 1855.650024 
26.600000 -202.539993 1855.619995 
26.080000 -203.089996 1855.400024 
26.440001 -202.940002 1855.560059 
12.250000 -203.970001 1855.530029 
12.020000 -203.839996 1855.739990 
12.030000 -204.139999 1855.660034 
12.640000 -203.669998 1855.310059 
12.400000 -203.589996 1855.500000 
12.190000 -203.410004 1855.699951 
12.520000 -204.619995 1855.500000 
12.430000 -203.929993 1855.430054 
12.620000 -204.369995 1855.420044 
12.410000 -204.130005 1855.469971 
15.230000 -208.220001 1855.449951 
15.530000 -210.139999 1855.329956 
15.370000 -209.740005 1855.369995 
15.610000 -209.289993 1855.359985 
16.000000 -208.300003 1855.369995 
15.230000 -208.910004 1855.420044 
15.010000 -208.809998 1855.439941 
15.830000 -208.610001 1855.369995 
15.890000 -209.059998 1855.339966 
15.590000 -209.729996 1855.339966 
16.160000 -208.000000 1855.369995 
15.280000 -209.389999 1855.390015 
15.610000 -208.940002 1855.380005 
15.470000 -208.339996 1855.420044 
15.950000 -208.839996 1855.349976 
15.660000 -208.470001 1855.400024 
15.580000 -209.940002 1855.339966 
15.430000 -209.100006 1855.390015 
15.330000 -208.570007 1855.420044 
15.050000 -208.589996 1855.449951 
14.890000 -208.130005 1855.489990 
14.790000 -208.320007 1855.489990 
15.300000 -208.020004 1855.449951 
15.620000 -208.199997 1855.410034 
13.800000 -211.020004 1855.810059 
14.190000 -210.970001 1855.640015 
14.000000 -210.830002 1855.699951 
14.030000 -211.130005 1855.719971 
14.500000 -211.589996 1855.569946 
14.430000 -211.259995 1855.569946 
14.400000 -210.880005 1855.540039 
14.500000 -210.699997 1855.469971 
14.470000 -210.419998 1855.449951 
14.220000 -210.750000 1855.599976 
15.310000 -212.440002 1855.469971 
15.650000 -213.289993 1855.469971 
15.760000 -213.779999 1855.500000 
15.360000 -213.259995 1855.560059 
15.020000 -213.089996 1855.640015 
15.030000 -212.800003 1855.599976 
15.430000 -212.960007 1855.500000 
15.480000 -213.669998 1855.569946 
14.780000 -212.839996 1855.680054 
15.660000 -213.509995 1855.500000 
15.320000 -214.149994 1855.719971 
15.460000 -214.500000 1855.750000 
15.270000 -214.339996 1855.790039 
15.760000 -214.449997 1855.619995 
15.750000 -214.199997 1855.560059 
15.640000 -214.639999 1855.719971 
15.550000 -214.149994 1855.630005 
16.180000 -214.759995 1855.530029 
16.180000 -215.039993 1855.599976 
15.910000 -214.839996 1855.660034 
15.620000 -214.839996 1855.770020 
15.980000 -214.639999 1855.579956 
15.780000 -215.009995 1855.750000 
17.320000 -214.789993 1855.369995 
17.590000 -215.250000 1855.400024 
17.570000 -215.830002 1855.469971 
17.980000 -214.720001 1855.329956 
17.750000 -214.729996 1855.339966 
18.309999 -214.759995 1855.310059 
17.809999 -215.080002 1855.369995 
17.910000 -215.660004 1855.430054 
18.620001 -215.190002 1855.339966 
17.280001 -214.520004 1855.339966 
18.180000 -215.210007 1855.369995 
17.680000 -215.509995 1855.430054 
17.580000 -214.949997 1855.369995 
17.389999 -215.179993 1855.410034 
17.430000 -215.479996 1855.439941 
18.389999 -215.229996 1855.359985 
18.990000 -215.039993 1855.310059 
18.270000 -215.389999 1855.380005 
17.600000 -214.449997 1855.319946 
18.020000 -215.369995 1855.390015 
17.820000 -215.279999 1855.390015 
20.480000 -216.750000 1855.890015 
20.910000 -216.929993 1855.939941 
20.790001 -216.690002 1855.750000 
20.660000 -216.960007 1856.050049 
21.150000 -216.889999 1855.849976 
64.199997 -228.309998 1855.709961 
64.040001 -228.789993 1855.660034 
63.820000 -229.029999 1855.689941 
64.419998 -229.160004 1855.469971 
63.830002 -228.789993 1855.729980 
64.050003 -229.059998 1855.609985 
64.300003 -228.899994 1855.560059 
64.709999 -228.770004 1855.650024 
64.330002 -228.559998 1855.650024 
64.699997 -228.429993 1855.760010 
65.050003 -228.229996 1855.900024 
64.940002 -228.419998 1855.810059 
65.099998 -229.119995 1855.619995 
65.389999 -229.029999 1855.729980 
65.169998 -229.470001 1855.479980 
64.889999 -229.130005 1855.579956 
65.449997 -230.110001 1855.400024 
65.650002 -229.889999 1855.640015 
65.860001 -229.899994 1855.770020 
65.849998 -230.130005 1855.650024 
63.830002 -230.509995 1855.550049 
63.639999 -230.410004 1855.719971 
63.509998 -230.009995 1855.790039 
63.689999 -230.110001 1855.640015 
63.549999 -230.610001 1855.810059 
63.830002 -230.199997 1855.520020 
63.619999 -232.470001 1856.339966 
63.660000 -232.240005 1856.530029 
63.730000 -232.639999 1856.430054 
63.790001 -232.259995 1856.719971 
63.500000 -232.070007 1856.339966 
63.750000 -232.449997 1856.560059 
63.900002 -233.539993 1856.010010 
63.709999 -233.550003 1855.780029 
63.910000 -233.339996 1856.180054 
63.750000 -233.169998 1856.130005 
63.830002 -233.039993 1856.329956 
64.050003 -233.550003 1856.170044 
63.939999 -233.729996 1855.900024 
66.050003 -234.360001 1855.819946 
66.360001 -234.630005 1855.420044 
66.330002 -234.320007 1855.369995 
66.239998 -234.440002 1855.540039 
64.349998 -234.940002 1855.729980 
64.010002 -234.759995 1855.579956 
64.480003 -235.130005 1855.699951 
64.139999 -235.009995 1855.510010 
64.089996 -234.630005 1855.729980 
64.169998 -234.509995 1855.880005 
64.709999 -236.009995 1855.250000 
64.660004 -235.559998 1855.530029 
64.680000 -235.779999 1855.390015 
64.339996 -235.839996 1855.109985 
64.849998 -235.910004 1855.400024 
65.139999 -235.529999 1855.599976 
65.349998 -235.429993 1855.660034 
65.419998 -235.759995 1855.459961 
65.629997 -235.820007 1855.390015 
65.580002 -235.610001 1855.530029 
65.300003 -235.960007 1855.359985 
65.070000 -236.000000 1855.369995 
56.529999 -242.520004 1855.589966 
56.279999 -242.610001 1855.530029 
56.540001 -242.699997 1855.500000 
56.570000 -242.880005 1855.400024 
56.799999 -242.869995 1855.420044 
56.320000 -242.830002 1855.420044 
57.310001 -242.860001 1855.510010 
57.490002 -242.949997 1855.560059 
57.849998 -242.809998 1855.849976 
57.630001 -242.660004 1855.800049 
57.480000 -242.770004 1855.660034 
57.930000 -243.070007 1855.750000 
57.689999 -242.899994 1855.699951 
57.759998 -242.529999 1855.949951 
55.299999 -243.929993 1855.550049 
55.450001 -243.919998 1855.390015 
55.419998 -243.600006 1855.560059 
55.220001 -244.190002 1855.510010 
58.380001 -244.479996 1855.339966 
58.490002 -244.750000 1855.500000 
58.540001 -245.029999 1855.250000 
58.580002 -244.779999 1856.069946 
58.439999 -244.690002 1855.310059 
58.560001 -244.820007 1855.819946 
58.459999 -244.550003 1855.729980 
55.220001 -247.119995 1855.569946 
55.380001 -247.440002 1855.510010 
55.630001 -247.570007 1855.680054 
55.160000 -247.279999 1855.380005 
55.529999 -247.289993 1855.780029 
31.760000 -193.619995 1856.010010 
32.230000 -193.550003 1855.930054 
31.780001 -193.460007 1855.880005 
32.060001 -193.460007 1855.869995 
33.029999 -193.910004 1855.640015 
33.020000 -193.610001 1855.510010 
13.180000 -198.559998 1856.310059 
13.200000 -198.339996 1856.449951 
13.250000 -198.710007 1856.050049 
13.060000 -198.619995 1856.530029 
13.090000 -198.770004 1856.339966 
13.310000 -198.199997 1856.300049 
13.350000 -197.990005 1856.390015 
32.049999 -199.130005 1856.280029 
31.950001 -199.110001 1855.989990 
31.610001 -199.389999 1856.030029 
32.110001 -199.000000 1856.040039 
31.809999 -199.250000 1856.099976 
11.920000 -204.240005 1855.880005 
11.870000 -204.509995 1856.170044 
11.790000 -204.179993 1856.319946 
11.870000 -204.320007 1856.099976 
11.840000 -204.110001 1856.119995 
11.850000 -203.759995 1856.160034 
11.940000 -203.710007 1855.890015 
11.890000 -203.570007 1856.089966 
11.780000 -203.979996 1856.310059 
11.900000 -203.960007 1855.969971 
12.820000 -206.259995 1855.810059 
12.790000 -205.960007 1855.760010 
13.320000 -206.229996 1855.599976 
12.520000 -205.770004 1855.829956 
12.650000 -206.449997 1855.910034 
13.110000 -206.149994 1855.670044 
12.490000 -206.000000 1855.890015 
12.640000 -206.169998 1855.859985 
13.440000 -209.389999 1855.739990 
13.320000 -209.720001 1855.790039 
13.080000 -209.309998 1855.890015 
13.260000 -209.440002 1855.819946 
13.310000 -209.029999 1855.800049 
13.530000 -208.910004 1855.699951 
13.490000 -208.100006 1855.729980 
13.520000 -208.669998 1855.709961 
13.430000 -208.419998 1855.750000 
13.140000 -208.929993 1855.869995 
13.790000 -213.029999 1856.670044 
13.770000 -212.779999 1856.540039 
13.940000 -212.830002 1856.359985 
14.080000 -213.229996 1856.420044 
13.730000 -212.259995 1856.280029 
13.700000 -212.429993 1856.420044 
13.630000 -212.839996 1856.750000 
13.830000 -212.119995 1856.069946 
13.850000 -212.399994 1856.199951 
13.580000 -212.539993 1856.630005 
25.879999 -213.990005 1855.819946 
25.680000 -214.339996 1855.890015 
25.620001 -214.610001 1856.099976 
25.559999 -214.210007 1855.589966 
15.890000 -215.309998 1855.869995 
15.940000 -215.529999 1855.989990 
15.580000 -215.300003 1856.020020 
15.740000 -215.630005 1856.140015 
16.180000 -215.350006 1855.760010 
15.670000 -215.139999 1855.880005 
16.809999 -216.669998 1856.089966 
16.629999 -216.559998 1856.160034 
16.750000 -216.470001 1855.939941 
16.629999 -216.720001 1856.319946 
16.420000 -216.470001 1856.260010 
16.520000 -216.330002 1856.020020 
16.600000 -216.240005 1855.859985 
21.240000 -217.119995 1856.229980 
20.870001 -217.119995 1856.160034 
21.540001 -217.080002 1856.219971 
21.760000 -217.080002 1856.260010 
21.490000 -216.970001 1856.040039 
21.070000 -217.080002 1856.130005 
65.480003 -228.570007 1856.040039 
65.330002 -228.229996 1856.089966 
65.779999 -228.429993 1856.550049 
65.589996 -228.399994 1856.310059 
65.709999 -228.559998 1856.349976 
63.660000 -229.369995 1855.729980 
63.720001 -229.610001 1855.699951 
64.209999 -229.250000 1855.540039 
