66.36000061 -177.49000549 1830.39001465
60.11999893 -268.14001465 1830.18994141
60.11999893 -268.36999512 1830.48999023
59.97000122 -268.57000732 1830.11999512
60.15999985 -267.92999268 1830.08996582
60.18999863 -268.10000610 1830.43994141
50.27000046 -166.85000610 1830.41003418
50.02999878 -166.71000671 1830.63000488
50.27999878 -166.72999573 1830.56994629
50.15000153 -167.00000000 1830.23999023
50.56999969 -167.08000183 1830.07995605
50.15999985 -166.60000610 1830.75000000
50.02000046 -166.91999817 1830.36999512
62.65000153 -174.00999451 1830.57995605
62.00000000 -174.44000244 1830.53002930
62.47999954 -174.30000305 1830.46997070
62.29999924 -174.47000122 1830.43005371
62.34000015 -174.08000183 1830.63000488
62.52000046 -174.50999451 1830.35998535
60.54000092 -269.72000122 1830.05004883
60.52999878 -269.97000122 1829.83996582
60.77000046 -269.92001343 1830.04003906
60.81000137 -269.67999268 1830.26000977
53.04999924 -167.42999268 1830.54003906
52.81999969 -167.33000183 1830.56005859
53.09999847 -167.38000488 1830.81005859
52.95999908 -167.44999695 1830.31994629
57.40000153 -173.38999939 1830.89001465
57.20999908 -173.44999695 1831.02001953
57.04000092 -173.30000305 1830.94995117
57.22999954 -173.25000000 1830.82995605
56.88000107 -172.97000122 1830.70996094
62.09999847 -173.57000732 1830.80004883
62.27999878 -173.44000244 1830.91003418
62.00999832 -173.30999756 1830.98999023
61.81999969 -173.50999451 1830.81994629
62.38999939 -173.61999512 1830.78002930
62.16999817 -173.13999939 1831.13000488
66.84999847 -177.03999329 1830.25000000
66.62000275 -177.05999756 1830.42004395
66.44999695 -177.07000732 1830.54003906
66.70999908 -176.72000122 1830.42004395
61.29999924 -269.60000610 1830.69995117
61.27999878 -269.47000122 1830.96997070
61.15000153 -269.35998535 1831.19995117
61.27000046 -269.70001221 1830.48999023
61.43999863 -269.51998901 1830.83996582
49.18999863 -166.25999451 1831.26000977
49.06000137 -166.58999634 1830.96997070
48.75000000 -166.75000000 1830.91003418
49.09000015 -166.83000183 1830.69995117
49.25999832 -166.55999756 1830.92004395
49.20999908 -166.41999817 1831.07995605
49.33000183 -166.80000305 1830.64001465
48.84999847 -166.55999756 1831.07995605
48.20999908 -167.50000000 1830.81994629
48.45999908 -167.44000244 1830.69995117
48.56000137 -167.11000061 1830.77001953
48.63999939 -167.52000427 1830.56994629
48.09000015 -167.91999817 1830.83996582
47.75000000 -168.00999451 1831.09997559
48.63000107 -168.47000122 1830.48999023
48.25999832 -168.11999512 1830.72998047
48.08000183 -168.14999390 1830.85998535
47.54000092 -168.27000427 1831.26000977
47.81999969 -168.22000122 1831.06005859
48.38000107 -168.44000244 1830.67004395
47.95000076 -167.74000549 1830.93994141
48.47000122 -168.22999573 1830.58996582
54.43999863 -172.25999451 1830.82995605
54.81999969 -172.46000671 1831.16003418
54.68000031 -172.33999634 1830.84997559
54.90999985 -172.42999268 1830.96997070
56.45000076 -172.91000366 1830.78002930
56.45000076 -173.13000488 1831.00000000
56.70000076 -173.22000122 1831.00000000
56.22999954 -172.88000488 1830.82995605
56.63000107 -172.83000183 1830.65002441
61.04999924 -173.05999756 1831.06994629
60.84999847 -173.27999878 1830.89001465
61.25000000 -172.91000366 1831.19995117
61.38999939 -173.30999756 1830.92004395
61.54999924 -173.44999695 1830.83996582
61.15999985 -173.33000183 1830.88000488
61.41999817 -173.00999451 1831.15002441
61.77000046 -173.21000671 1831.04003906
61.70999908 -172.99000549 1831.18994141
61.50000000 -172.83999634 1831.28002930
62.59999847 -173.35000610 1831.13000488
62.93000031 -173.39999390 1831.28002930
62.59999847 -173.50000000 1830.93994141
62.36999893 -173.17999268 1831.16003418
62.63999939 -173.64999390 1830.80004883
57.88000107 -174.13000488 1831.51000977
57.65000153 -173.89999390 1831.39001465
58.20999908 -173.97000122 1831.06994629
58.43999863 -174.13000488 1831.09997559
57.88000107 -173.72999573 1831.02001953
57.97000122 -174.05000305 1831.34997559
58.15000153 -174.16000366 1831.33996582
58.00000000 -173.91000366 1831.15002441
59.72999954 -174.38000488 1831.00000000
59.02999878 -174.33999634 1831.05004883
59.74000168 -174.63000488 1831.06005859
59.40999985 -174.30000305 1831.01000977
59.36999893 -174.50999451 1831.06994629
59.79999924 -174.16999817 1830.93005371
61.40000153 -175.02999878 1830.68005371
61.22999954 -174.88999939 1830.71997070
61.00999832 -175.02000427 1830.79003906
61.27000046 -175.30000305 1830.73999023
61.54999924 -174.86999512 1830.61999512
61.54999924 -175.33999634 1830.65002441
60.95000076 -175.33999634 1830.95996094
60.65999985 -175.19999695 1831.05004883
60.54999924 -175.30999756 1831.22998047
60.33000183 -175.38999939 1831.44995117
60.70999908 -175.44000244 1831.21997070
60.15999985 -175.39999390 1831.58996582
65.69000244 -175.61999512 1831.13000488
65.51000214 -176.02000427 1831.29003906
65.26999664 -176.05999756 1831.45996094
65.70999908 -175.94999695 1831.15002441
65.75000000 -176.36000061 1831.15002441
56.43000031 -169.25000000 1831.15002441
55.93000031 -169.02999878 1831.39001465
56.33000183 -169.25999451 1831.35998535
56.31000137 -169.13000488 1830.93994141
56.09000015 -169.13999939 1831.46997070
56.15000153 -169.08999634 1831.16003418
52.52000046 -170.71000671 1831.56005859
52.61000061 -170.94000244 1831.29003906
52.15999985 -170.69999695 1831.43005371
52.31999969 -170.88999939 1831.25000000
52.36000061 -170.53999329 1831.71997070
51.93000031 -170.77000427 1831.23999023
62.06000137 -172.99000549 1831.55004883
62.22999954 -173.03999329 1831.76000977
61.75000000 -172.88000488 1831.57995605
62.00000000 -172.94999695 1831.81994629
62.09999847 -173.02999878 1831.31005859
61.06000137 -175.82000732 1831.57995605
61.54999924 -176.00000000 1831.63000488
60.70999908 -175.67999268 1831.65002441
60.84999847 -175.69000244 1831.81005859
61.18999863 -175.80000305 1831.88000488
61.40999985 -175.82000732 1832.17004395
60.68000031 -175.61000061 1831.89001465
60.45000076 -175.58999634 1831.59997559
61.50000000 -176.02999878 1831.39001465
60.43999863 -175.53999329 1831.80004883
61.31000137 -175.91999817 1831.56994629
49.47000122 -166.08999634 1832.45996094
49.00000000 -165.96000671 1832.46997070
48.77000046 -165.91000366 1832.57995605
49.06999969 -166.00000000 1832.68994141
48.79999924 -165.92999268 1832.80004883
48.84999847 -165.96000671 1833.06005859
48.84999847 -165.91999817 1832.30004883
53.43999863 -168.42999268 1831.97998047
53.56000137 -168.63000488 1832.01000977
54.00000000 -168.36999512 1831.81005859
53.68000031 -168.16000366 1831.82995605
53.77000046 -168.55999756 1831.93994141
54.06000137 -168.19000244 1831.73999023
53.13000107 -169.86000061 1832.19995117
52.84000015 -169.69000244 1832.20996094
52.70999908 -169.91999817 1832.11999512
52.49000168 -170.24000549 1831.97998047
52.50999832 -170.05000305 1832.05004883
52.54999924 -169.66000366 1832.18005371
52.97000122 -170.08999634 1832.09997559
56.47000122 -173.05000305 1832.05004883
56.66999817 -173.19000244 1832.16003418
56.63999939 -173.33999634 1832.01000977
56.52000046 -172.86000061 1832.25000000
60.66999817 -175.55000305 1832.10998535
60.93000031 -175.66999817 1832.03002930
60.99000168 -175.64999390 1832.21997070
60.75999832 -175.52999878 1832.31994629
60.31000137 -175.44000244 1832.00000000
60.52999878 -175.44000244 1832.32995605
46.45999908 -167.42999268 1832.36999512
46.27000046 -167.35000610 1832.60998535
46.47999954 -167.69999695 1832.39001465
46.25000000 -167.10000610 1832.59997559
46.38000107 -167.24000549 1832.44995117
46.31000137 -167.80000305 1832.60998535
46.66999817 -167.83000183 1832.17004395
56.18999863 -170.66000366 1832.42004395
56.66999817 -170.69000244 1832.45996094
56.43999863 -170.72999573 1832.45996094
56.79999924 -171.05000305 1832.59997559
56.56999969 -170.96000671 1832.56005859
56.36999893 -170.47999573 1832.35998535
56.66999817 -170.46000671 1832.36999512
59.95999908 -266.23999023 1832.30004883
60.38999939 -265.94000244 1832.28002930
60.15000153 -265.82998657 1832.46997070
59.88000107 -265.89001465 1832.56994629
59.79999924 -266.07000732 1832.48999023
59.81000137 -265.67999268 1832.73999023
46.56000137 -166.07000732 1832.86999512
46.18999863 -166.25999451 1833.14001465
46.18000031 -166.75000000 1832.77001953
46.11000061 -166.58000183 1832.98999023
46.50999832 -166.32000732 1832.72998047
46.40000153 -166.17999268 1832.94995117
46.36000061 -166.60000610 1832.68994141
45.95000076 -166.30999756 1833.36999512
46.27999878 -166.38000488 1832.93994141
50.45000076 -167.27000427 1832.95996094
50.52999878 -166.74000549 1832.63000488
50.25000000 -166.94000244 1832.90002441
51.00000000 -167.27000427 1832.64001465
50.90000153 -167.49000549 1832.81994629
50.13000107 -167.28999329 1833.15002441
50.75000000 -167.21000671 1832.75000000
50.43000031 -166.88000488 1832.76000977
50.63999939 -167.44999695 1832.94995117
49.95000076 -167.35000610 1833.28002930
50.77000046 -167.02000427 1832.64001465
51.20999908 -167.57000732 1832.68994141
51.83000183 -167.22000122 1832.11999512
51.04000092 -166.92999268 1832.43005371
51.24000168 -167.13999939 1832.43005371
51.47000122 -167.44000244 1832.45996094
52.20999908 -167.30999756 1831.93994141
51.58000183 -167.14999390 1832.22998047
50.77999878 -166.77999878 1832.50000000
52.02000046 -167.25000000 1832.02001953
51.38999939 -167.00999451 1832.27001953
56.34999847 -171.86000061 1832.56005859
56.75000000 -171.36000061 1832.63000488
56.50000000 -172.08000183 1832.55004883
56.61000061 -171.85000610 1832.57995605
56.16999817 -171.69000244 1832.56005859
56.61999893 -171.58999634 1832.59997559
56.50999832 -172.41000366 1832.53002930
56.40000153 -171.61999512 1832.57995605
58.11999893 -172.36000061 1832.89001465
57.58000183 -172.22999573 1832.84997559
57.88000107 -172.57000732 1832.88000488
58.34000015 -172.07000732 1832.91003418
57.79999924 -172.08999634 1832.86999512
58.04999924 -172.71000671 1832.89001465
57.79999924 -172.35000610 1832.86999512
61.47999954 -173.16000366 1832.71997070
61.99000168 -173.42999268 1832.73999023
62.18999863 -173.60000610 1832.76000977
61.77999878 -173.64999390 1832.81994629
61.97999954 -173.66000366 1832.80004883
61.41999817 -173.57000732 1832.83996582
61.75999832 -173.21000671 1832.69995117
61.59000015 -173.44000244 1832.78002930
49.47000122 -166.25000000 1832.81005859
49.41999817 -166.10000610 1832.66003418
49.20000076 -166.11000061 1832.93005371
49.38999939 -166.36999512 1833.06994629
49.06999969 -166.13999939 1833.14001465
57.88999939 -266.07998657 1833.50000000
58.11000061 -265.95999146 1833.33996582
58.13999939 -265.64001465 1833.53002930
57.99000168 -265.79000854 1833.58996582
58.25999832 -265.95999146 1833.15002441
46.81000137 -165.80999756 1833.41003418
46.99000168 -165.69000244 1833.50000000
46.70999908 -165.82000732 1833.58996582
46.90999985 -165.80000305 1833.17004395
46.72999954 -165.88999939 1833.20996094
61.95000076 -266.98999023 1833.44995117
61.84000015 -266.70999146 1833.75000000
62.02000046 -267.14001465 1833.22998047
61.83000183 -267.04998779 1833.93994141
61.84999847 -267.32000732 1833.92004395
61.90000153 -267.23001099 1833.71997070
61.52999878 -268.26000977 1833.44995117
61.18000031 -268.39001465 1833.68005371
61.70000076 -268.10000610 1833.52001953
61.24000168 -268.45001221 1833.48999023
61.22000122 -268.57000732 1833.29003906
61.38999939 -268.42001343 1833.32995605
60.97999954 -268.54998779 1833.66003418
57.86999893 -265.51998901 1834.10998535
58.13000107 -265.41000366 1833.75000000
57.86999893 -265.79000854 1833.80004883
57.90999985 -265.60998535 1833.93005371
57.90000153 -265.35000610 1834.23999023
61.20999908 -266.48001099 1834.43994141
60.59999847 -265.89999390 1834.66003418
61.43999863 -266.39001465 1834.18005371
60.75999832 -265.85000610 1834.46997070
61.11000061 -266.10000610 1834.31005859
61.25999832 -266.26000977 1834.26000977
60.86999893 -266.22000122 1834.59997559
60.95000076 -266.41000366 1834.65002441
60.56000137 -266.20001221 1834.88000488
60.74000168 -266.33999634 1834.80004883
60.58000183 -266.45001221 1835.01000977
61.04000092 -266.29000854 1834.48999023
57.08000183 -266.42999268 1834.56005859
56.79000092 -266.20001221 1834.76000977
56.59000015 -266.10000610 1834.91003418
56.97000122 -266.14001465 1834.58996582
57.25000000 -266.16000366 1834.33996582
56.68999863 -266.42999268 1834.91003418
56.95000076 -266.61999512 1834.72998047
56.75000000 -265.91000366 1834.83996582
56.97000122 -265.64999390 1834.75000000
56.93000031 -265.92001343 1834.67004395
57.09999847 -265.83999634 1834.55004883
60.81000137 -266.66000366 1834.82995605
61.43999863 -266.57998657 1834.25000000
61.09999847 -266.76000977 1834.56005859
61.18000031 -266.95999146 1834.50000000
60.95000076 -266.85000610 1834.70996094
61.33000183 -266.80999756 1834.35998535
61.08000183 -266.54998779 1834.57995605
60.99000168 -267.04998779 1834.67004395
61.61999893 -266.57998657 1834.08996582
45.56999969 -169.14999390 1835.22998047
45.29000092 -169.30000305 1835.91003418
45.72999954 -169.08000183 1834.93994141
45.97999954 -169.22000122 1835.45996094
45.91999817 -169.07000732 1834.84997559
46.22999954 -169.16999817 1835.18005371
45.90999985 -169.13000488 1835.08996582
45.81000137 -169.24000549 1835.57995605
45.56000137 -169.22000122 1835.55004883
45.56999969 -169.36000061 1836.17004395
45.91999817 -169.41999817 1836.32995605
45.34999847 -169.47999573 1836.32995605
45.22000122 -169.38000488 1836.14001465
45.63999939 -169.63999939 1836.66003418
45.77999878 -169.52000427 1836.48999023
58.20999908 -264.73999023 1835.40002441
57.83000183 -264.77999878 1835.21997070
58.06999969 -264.69000244 1835.57995605
58.06999969 -264.79000854 1835.21997070
57.90000153 -264.72000122 1835.46997070
57.66999817 -264.72000122 1835.43994141
58.40000153 -264.79000854 1835.26000977
56.04999924 -265.73001099 1835.44995117
56.45999908 -265.44000244 1835.33996582
56.34000015 -265.82998657 1835.23999023
56.22999954 -265.70001221 1835.35998535
56.25000000 -265.41000366 1835.46997070
56.04000092 -265.47000122 1835.56994629
58.24000168 -264.82000732 1836.43005371
58.20000076 -264.85998535 1836.63000488
58.45999908 -264.85998535 1836.22998047
58.25000000 -264.69000244 1835.97998047
58.13000107 -264.73001099 1836.28002930
58.63999939 -264.92001343 1836.16003418
59.59999847 -266.07000732 1835.93994141
59.41999817 -265.83999634 1836.21997070
59.52999878 -265.86999512 1835.98999023
59.43999863 -266.25000000 1836.34997559
59.47999954 -266.04998779 1836.18994141
59.11999893 -266.69000244 1836.56994629
58.88000107 -266.60000610 1836.92004395
59.09000015 -266.50000000 1836.68994141
58.93000031 -266.80999756 1836.75000000
59.25000000 -266.17001343 1836.64001465
44.15000153 -169.36999512 1836.80004883
44.43000031 -169.60000610 1836.85998535
44.24000168 -169.60000610 1837.00000000
44.13999939 -169.16999817 1836.56005859
43.97000122 -169.41000366 1836.98999023
44.34000015 -169.41000366 1836.69995117
59.04999924 -265.86999512 1836.71997070
58.90000153 -265.39999390 1836.51000977
58.72999954 -265.45999146 1836.80004883
59.04000092 -265.67999268 1836.56994629
58.88000107 -265.10000610 1836.26000977
58.75000000 -265.67001343 1836.96997070
58.36000061 -267.32998657 1836.73999023
58.31000137 -266.98999023 1837.15002441
58.04000092 -267.19000244 1837.18005371
58.27999878 -267.14999390 1837.00000000
58.61999893 -266.76998901 1837.07995605
45.18000031 -166.44999695 1837.16003418
44.93000031 -166.52000427 1837.17004395
44.90999985 -166.66000366 1837.35998535
45.34000015 -166.61000061 1837.45996094
45.34000015 -166.72999573 1837.61999512
44.70000076 -166.61999512 1837.21997070
45.13999939 -166.63000488 1837.40002441
45.31999969 -166.30999756 1837.01000977
45.52999878 -166.41999817 1837.10998535
45.61999893 -166.75000000 1837.60998535
45.75000000 -166.58000183 1837.26000977
46.00000000 -166.63000488 1837.23999023
45.38999939 -166.50000000 1837.30004883
46.20999908 -166.72000122 1837.29003906
45.75999832 -166.69999695 1837.44995117
56.08000183 -264.04000854 1837.39001465
55.75999832 -264.08999634 1837.18994141
56.38999939 -263.95001221 1837.65002441
55.86999893 -263.95999146 1837.46997070
56.13000107 -263.92001343 1837.63000488
55.88000107 -263.83999634 1837.68994141
56.31999969 -264.07998657 1837.20996094
56.00000000 -264.13000488 1837.11999512
56.34000015 -264.14001465 1836.96997070
45.97000122 -167.27000427 1838.05004883
45.54000092 -167.03999329 1838.17004395
45.68999863 -167.21000671 1838.31005859
45.83000183 -167.11999512 1837.91003418
46.18999863 -167.38000488 1837.94995117
45.59999847 -166.92999268 1837.83996582
46.65000153 -169.02999878 1837.01000977
46.72999954 -168.63000488 1837.52001953
46.65000153 -168.94000244 1837.52001953
46.72000122 -168.72999573 1837.18994141
46.77999878 -168.41999817 1837.47998047
46.68999863 -168.77999878 1837.65002441
58.18000031 -265.23001099 1837.14001465
58.31999969 -265.38000488 1837.17004395
58.00000000 -265.26998901 1837.43994141
58.13000107 -265.07000732 1836.98999023
58.50000000 -265.57000732 1837.18994141
58.04999924 -264.92001343 1836.88000488
46.27999878 -169.58000183 1837.56994629
46.45999908 -169.28999329 1837.71997070
46.36000061 -169.66000366 1837.85998535
46.45000076 -169.44999695 1837.85998535
46.31000137 -169.86000061 1837.95996094
46.41999817 -169.71000671 1838.06994629
46.56000137 -169.21000671 1837.88000488
44.29999924 -170.55999756 1838.00000000
44.70999908 -170.30000305 1837.56005859
44.11999893 -170.39999390 1837.94995117
44.41999817 -170.38000488 1837.78002930
43.95999908 -170.22999573 1837.88000488
44.58000183 -170.66000366 1837.94995117
44.40999985 -170.22000122 1837.65002441
46.56999969 -168.83999634 1838.19995117
46.58000183 -168.91999817 1837.96997070
46.56999969 -168.86999512 1838.41003418
46.59999847 -169.11999512 1838.07995605
46.52000046 -168.50000000 1838.38000488
45.27000046 -170.69999695 1838.09997559
45.06999969 -170.91000366 1838.28002930
44.90000153 -170.72999573 1838.06994629
53.88000107 -266.27999878 1838.35998535
54.08000183 -266.35000610 1838.20996094
54.02000046 -266.20999146 1837.97998047
54.31000137 -266.57000732 1838.33996582
54.47000122 -266.70001221 1838.36999512
54.27000046 -266.41000366 1838.02001953
54.20999908 -266.26998901 1837.81994629
44.24000168 -167.72000122 1838.32995605
44.66999817 -167.49000549 1838.69995117
44.31999969 -167.77999878 1838.57995605
44.00000000 -168.11000061 1838.55004883
44.54999924 -167.38999939 1838.32995605
44.52000046 -167.61000061 1838.64001465
44.40999985 -167.53999329 1838.33996582
57.15000153 -265.26000977 1838.46997070
57.02000046 -265.36999512 1838.75000000
57.31000137 -265.19000244 1838.18994141
57.20999908 -264.92999268 1838.17004395
57.22000122 -265.45001221 1838.50000000
57.38999939 -265.47000122 1838.25000000
57.13999939 -265.04998779 1838.35998535
57.47999954 -265.76000977 1838.29003906
57.20000076 -265.85000610 1838.58996582
56.97999954 -266.23001099 1838.76000977
57.02000046 -265.80999756 1838.76000977
57.09000015 -265.55999756 1838.70996094
57.06999969 -266.02999878 1838.69995117
57.38000107 -265.95001221 1838.42004395
55.77000046 -263.51998901 1839.04003906
55.65000153 -263.55999756 1838.81005859
55.09999847 -263.48001099 1838.70996094
55.40000153 -263.48999023 1838.91003418
55.75000000 -263.64001465 1838.56005859
55.90000153 -263.61999512 1838.73999023
46.31999969 -171.14999390 1839.66003418
46.09000015 -171.25000000 1839.52001953
46.47000122 -170.97999573 1839.45996094
45.84000015 -171.41999817 1839.54003906
46.04000092 -171.35000610 1839.71997070
45.84000015 -171.33999634 1839.32995605
54.29000092 -263.33999634 1839.14001465
54.16999817 -263.54998779 1839.04003906
54.77000046 -263.44000244 1838.83996582
54.58000183 -263.60000610 1838.80004883
54.22000122 -263.04000854 1839.41003418
54.36000061 -263.51000977 1838.97998047
54.50999832 -263.38000488 1839.01000977
54.40999985 -263.11999512 1839.25000000
53.27999878 -263.23001099 1840.23999023
53.33000183 -262.76998901 1840.39001465
53.43000031 -263.51998901 1839.85998535
53.45999908 -262.98999023 1840.06994629
53.27999878 -263.01998901 1840.34997559
53.11999893 -263.29000854 1840.45996094
55.90999985 -263.45001221 1839.58996582
55.93999863 -263.08999634 1840.17004395
56.08000183 -263.70001221 1839.81005859
56.04000092 -263.47000122 1839.95996094
56.02999878 -263.73001099 1839.59997559
55.83000183 -263.45999146 1839.31994629
55.93000031 -263.25000000 1839.91003418
56.08000183 -264.32998657 1840.27001953
56.06000137 -264.19000244 1840.48999023
56.02999878 -264.42001343 1840.50000000
56.11000061 -263.91000366 1840.40002441
56.18999863 -264.04000854 1839.89001465
56.06000137 -263.92999268 1840.68005371
44.29999924 -168.27000427 1840.36999512
44.06000137 -168.50000000 1840.48999023
44.47000122 -168.11999512 1840.29003906
56.11999893 -263.76998901 1840.13000488
56.04000092 -263.64999390 1840.59997559
56.00999832 -263.39001465 1840.38000488
56.06000137 -263.51998901 1840.18005371
46.02999878 -171.63999939 1840.79003906
46.13000107 -171.41000366 1840.70996094
45.93000031 -171.91999817 1840.70996094
46.11000061 -171.41000366 1840.93005371
46.27000046 -171.07000732 1840.63000488
46.34000015 -170.96000671 1840.42004395
46.16999817 -171.17999268 1841.15002441
55.50000000 -261.86999512 1840.91003418
55.56999969 -261.60998535 1841.20996094
55.54000092 -262.23999023 1840.68994141
55.79999924 -262.26998901 1841.02001953
55.31999969 -262.25000000 1840.38000488
55.63999939 -261.91000366 1841.06005859
55.56999969 -262.08999634 1840.83996582
46.25999832 -170.92999268 1840.85998535
46.29999924 -170.72000122 1840.71997070
54.75999832 -265.69000244 1840.76000977
54.74000168 -265.51998901 1840.96997070
54.81999969 -265.33999634 1841.11999512
55.15000153 -265.50000000 1840.75000000
54.68000031 -265.25000000 1841.29003906
55.16999817 -265.32998657 1840.93005371
54.45000076 -261.01998901 1841.78002930
54.16999817 -261.13000488 1841.85998535
54.25000000 -261.22000122 1841.61999512
54.00000000 -261.01998901 1842.22998047
54.63999939 -260.95001221 1841.72998047
53.93000031 -261.16000366 1842.04003906
54.36999893 -260.95999146 1841.97998047
54.06000137 -261.30999756 1841.64001465
54.68000031 -264.94000244 1841.63000488
54.74000168 -264.76998901 1841.81994629
54.45000076 -264.57000732 1841.92004395
54.63999939 -264.48999023 1842.06005859
54.50999832 -264.76000977 1841.75000000
54.00999832 -264.35000610 1841.98999023
54.18999863 -264.45999146 1841.94995117
54.11000061 -264.20001221 1842.15002441
54.20999908 -264.01998901 1842.31994629
54.43000031 -264.11999512 1842.31994629
54.29999924 -263.83999634 1842.50000000
54.36999893 -264.36999512 1842.08996582
54.65000153 -264.25000000 1842.28002930
54.11999893 -263.72000122 1842.54003906
56.36000061 -260.26000977 1842.64001465
55.84000015 -259.95999146 1842.58996582
56.34999847 -259.98001099 1842.78002930
56.18999863 -259.85998535 1842.78002930
56.11000061 -260.17001343 1842.58996582
56.84000015 -262.10000610 1843.43005371
56.47000122 -262.51000977 1843.41003418
56.56999969 -262.29998779 1843.57995605
56.70000076 -262.33999634 1843.30004883
56.38999939 -262.76998901 1843.14001465
56.38000107 -262.67001343 1843.32995605
56.40999985 -262.32998657 1843.81005859
73.27999878 -243.25000000 1844.32995605
73.38999939 -243.19999695 1844.95996094
73.33000183 -243.24000549 1844.53002930
73.09999847 -243.07000732 1844.92004395
73.15000153 -243.14999390 1844.60998535
73.44000244 -243.25999451 1844.69995117
72.79000092 -242.94999695 1844.85998535
55.11000061 -258.42999268 1844.81005859
55.08000183 -258.54998779 1844.45996094
54.84000015 -258.91000366 1844.00000000
55.34000015 -258.39999390 1844.16003418
55.08000183 -258.67999268 1844.04003906
55.25999832 -258.39999390 1844.43005371
55.18000031 -258.54000854 1844.19995117
73.29000092 -242.88999939 1845.42004395
73.09999847 -242.94000244 1845.19995117
73.34999847 -243.03999329 1845.20996094
72.91000366 -242.86000061 1845.18994141
73.09999847 -242.64999390 1845.68994141
72.97000122 -242.74000549 1845.43005371
56.97999954 -260.98001099 1844.86999512
56.72999954 -260.82000732 1845.25000000
56.36999893 -261.13000488 1845.02001953
56.59000015 -261.00000000 1845.07995605
56.70000076 -261.07998657 1844.89001465
57.04999924 -260.82998657 1845.05004883
56.90999985 -260.63000488 1845.41003418
54.54000092 -259.70001221 1844.98999023
54.74000168 -259.32000732 1845.23999023
54.61999893 -259.86999512 1845.14001465
54.47000122 -259.33999634 1844.81005859
54.81000137 -259.14001465 1845.32995605
54.70999908 -259.67001343 1845.25000000
54.61999893 -259.25000000 1845.05004883
54.58000183 -259.45999146 1845.02001953
73.66000366 -244.16999817 1845.35998535
73.41999817 -244.50000000 1845.50000000
73.50000000 -244.30999756 1845.47998047
73.27999878 -244.69000244 1845.56994629
73.51999664 -244.80000305 1845.25000000
73.62000275 -244.61000061 1845.21997070
55.27000046 -258.32998657 1845.18005371
55.34000015 -258.44000244 1845.41003418
55.43000031 -258.66000366 1845.77001953
55.47000122 -258.32000732 1845.63000488
55.41999817 -258.00000000 1845.30004883
57.47999954 -260.14001465 1845.60998535
57.58000183 -260.27999878 1845.21997070
57.83000183 -260.08999634 1845.23999023
57.31000137 -260.39001465 1845.36999512
57.61999893 -259.98001099 1845.71997070
57.27999878 -260.32000732 1845.56005859
57.63000107 -260.14999390 1845.41003418
71.37000275 -241.52000427 1846.05004883
71.11000061 -241.33999634 1846.36999512
71.27999878 -241.30999756 1846.25000000
71.13999939 -241.52999878 1846.21997070
71.55000305 -241.36999512 1846.01000977
72.91999817 -241.49000549 1846.03002930
72.72000122 -241.80000305 1845.86999512
72.51000214 -241.57000732 1845.82995605
72.54000092 -241.05999756 1845.95996094
72.69999695 -241.53999329 1845.92004395
72.38999939 -241.82000732 1845.70996094
73.41999817 -243.97000122 1845.75000000
73.19999695 -244.27999878 1845.85998535
73.45999908 -243.60000610 1845.90002441
73.59999847 -243.89999390 1845.57995605
73.12000275 -244.47999573 1845.83996582
55.63999939 -258.32000732 1845.91003418
55.54000092 -258.04998779 1845.57995605
73.69000244 -240.60000610 1846.41003418
73.80999756 -240.97000122 1846.56005859
73.37000275 -240.55000305 1846.20996094
74.05999756 -240.49000549 1846.61999512
73.58000183 -240.77000427 1846.38000488
73.88999939 -240.72000122 1846.56005859
74.72000122 -238.61999512 1846.80004883
74.80999756 -238.96000671 1847.02001953
74.58999634 -238.66000366 1846.60998535
74.43000031 -239.14999390 1846.53002930
74.65000153 -238.96000671 1846.80004883
74.79000092 -238.75000000 1846.93994141
73.41999817 -243.41999817 1846.05004883
73.25000000 -243.36999512 1846.36999512
73.08999634 -243.44999695 1846.59997559
73.36000061 -242.94000244 1846.46997070
73.30000305 -243.50000000 1846.18994141
73.41999817 -243.19000244 1846.19995117
73.43000031 -242.72999573 1846.48999023
73.27999878 -243.17999268 1846.44995117
59.00999832 -258.52999878 1846.03002930
58.99000168 -258.48999023 1846.52001953
58.63000107 -258.79998779 1846.31005859
58.77999878 -258.66000366 1846.50000000
58.81000137 -258.67001343 1846.11999512
58.49000168 -258.88000488 1846.56005859
72.05000305 -239.13999939 1846.83996582
72.05999756 -239.28999329 1846.97998047
71.95999908 -239.60000610 1846.94995117
71.91999817 -239.27000427 1846.63000488
72.15000153 -239.46000671 1847.28002930
71.87999725 -239.49000549 1846.68994141
74.58000183 -239.36000061 1846.90002441
74.79000092 -239.16999817 1847.11999512
74.68000031 -239.17999268 1846.93994141
74.65000153 -239.55999756 1847.13000488
74.55000305 -239.21000671 1846.73999023
73.11000061 -242.41999817 1847.07995605
73.19999695 -242.50000000 1846.91003418
73.04000092 -242.71000671 1846.91003418
73.22000122 -242.25000000 1847.10998535
72.86000061 -242.77000427 1847.06994629
73.37999725 -242.49000549 1846.69995117
73.23000336 -242.64999390 1846.75000000
71.69999695 -243.58999634 1846.76000977
71.90000153 -243.66999817 1846.84997559
71.41999817 -243.44000244 1846.67004395
71.65000153 -243.39999390 1846.90002441
71.62999725 -243.19000244 1847.06994629
71.47000122 -243.27999878 1846.85998535
57.54000092 -253.47000122 1847.53002930
57.93000031 -253.50999451 1847.26000977
58.00000000 -253.25999451 1847.47998047
58.08000183 -253.36999512 1847.30004883
57.77000046 -253.41000366 1847.45996094
58.18000031 -253.55000305 1847.06005859
58.25999832 -253.19999695 1847.38000488
56.56999969 -258.75000000 1846.56994629
57.00999832 -258.82998657 1846.64001465
56.59999847 -258.94000244 1846.47998047
56.63999939 -258.55999756 1846.68994141
56.93999863 -258.48999023 1846.80004883
56.74000168 -258.33999634 1846.81994629
56.77000046 -258.76000977 1846.61999512
73.51999664 -241.64999390 1847.03002930
73.43000031 -241.82000732 1847.13000488
73.62999725 -241.47999573 1846.75000000
73.69999695 -241.32000732 1846.96997070
73.58999634 -241.50000000 1847.18994141
73.70999908 -241.27000427 1847.18005371
71.18000031 -242.32000732 1846.91003418
71.45999908 -242.16999817 1847.14001465
71.27999878 -241.94000244 1847.07995605
71.72000122 -242.11999512 1847.32995605
71.19999695 -242.13000488 1846.96997070
71.09999847 -242.47999573 1846.80004883
71.47000122 -242.46000671 1847.08996582
71.23999786 -242.75999451 1846.91003418
71.30999756 -242.57000732 1846.95996094
71.45999908 -242.72000122 1847.07995605
71.66000366 -242.69999695 1847.23999023
71.77999878 -242.36000061 1847.32995605
72.55999756 -243.53999329 1846.83996582
72.06999969 -243.61000061 1846.93994141
72.41000366 -243.33999634 1847.01000977
72.80000305 -243.50999451 1846.79003906
72.63999939 -243.13000488 1847.07995605
72.23000336 -243.46000671 1846.98999023
57.90999985 -253.66999817 1847.09997559
57.27000046 -254.14999390 1847.22998047
57.52999878 -253.80000305 1847.28002930
57.75000000 -253.63000488 1847.25000000
57.81999969 -253.85000610 1847.05004883
57.54000092 -253.63999939 1847.40002441
57.47999954 -254.05000305 1847.15002441
59.43999863 -253.52000427 1847.20996094
59.34000015 -253.69000244 1847.05004883
59.54000092 -253.75999451 1847.09997559
59.84999847 -254.19000244 1846.96997070
59.77999878 -254.00999451 1847.05004883
59.50999832 -253.94999695 1846.94995117
60.00999832 -254.50999451 1846.92004395
60.38999939 -254.91999817 1847.14001465
60.29000092 -254.72999573 1847.14001465
60.50999832 -254.71000671 1847.44995117
60.11000061 -254.69000244 1846.92004395
60.29999924 -255.00000000 1846.95996094
60.25000000 -254.55000305 1847.22998047
56.27999878 -257.51998901 1846.72998047
56.54999924 -257.89999390 1846.83996582
56.70000076 -258.07998657 1846.91003418
56.72999954 -257.77999878 1847.06005859
56.56000137 -257.45001221 1847.03002930
56.40000153 -257.67999268 1846.79003906
56.77000046 -257.48999023 1847.21997070
56.58000183 -257.64001465 1846.96997070
73.94000244 -240.02999878 1847.68005371
73.77999878 -239.55000305 1847.86999512
73.98000336 -239.42999268 1847.86999512
73.76999664 -240.13999939 1847.68005371
73.63999939 -239.91999817 1847.78002930
73.95999908 -239.69999695 1847.79003906
58.54999924 -252.94000244 1847.51000977
58.04000092 -252.72999573 1847.92004395
58.09000015 -252.60000610 1848.08996582
58.50999832 -252.77000427 1847.76000977
58.84000015 -252.55000305 1848.01000977
58.45000076 -252.61999512 1847.97998047
58.25000000 -252.66000366 1847.97998047
58.27000046 -252.83999634 1847.70996094
57.09000015 -254.53999329 1847.53002930
57.00000000 -254.91000366 1847.65002441
57.09999847 -254.36000061 1847.63000488
57.04000092 -254.47999573 1847.85998535
57.13999939 -254.47000122 1847.28002930
56.97999954 -255.10000610 1847.55004883
57.00000000 -254.69999695 1847.86999512
59.83000183 -256.85000610 1847.69995117
60.00999832 -256.61999512 1847.73999023
59.52999878 -257.05999756 1847.88000488
59.88999939 -256.61999512 1847.93994141
59.97999954 -256.76000977 1847.58996582
71.88999939 -237.52000427 1847.94995117
72.01999664 -237.69999695 1848.19995117
72.08999634 -237.66000366 1847.90002441
71.93000031 -237.72000122 1848.52001953
71.69000244 -237.39999390 1848.06005859
57.25000000 -253.50000000 1847.96997070
57.06999969 -253.86000061 1848.22998047
57.38000107 -253.50999451 1847.67004395
57.09999847 -253.42999268 1848.31005859
57.22000122 -253.74000549 1847.93005371
57.11999893 -254.11000061 1848.02001953
60.11999893 -253.42999268 1848.00000000
60.25999832 -253.61000061 1848.04003906
60.00000000 -253.13000488 1848.25000000
60.31000137 -253.36999512 1848.61999512
60.09999847 -253.16000366 1848.45996094
60.15000153 -253.33000183 1848.26000977
60.29999924 -253.50000000 1848.35998535
35.00999832 -190.69000244 1848.88000488
35.09999847 -190.42999268 1848.88000488
35.40999985 -190.97000122 1848.76000977
34.95000076 -190.94000244 1848.86999512
34.91999817 -191.17999268 1848.84997559
35.13000107 -191.05999756 1848.81005859
35.24000168 -190.86999512 1848.81005859
36.09000015 -191.63000488 1848.83996582
35.63999939 -191.50999451 1848.81005859
36.00000000 -191.30000305 1848.77001953
35.86999893 -191.75000000 1848.85998535
36.25000000 -191.42999268 1848.80004883
35.79000092 -191.30999756 1848.77001953
35.50999832 -192.00000000 1848.90002441
58.59999847 -256.04000854 1848.81994629
58.93000031 -255.91000366 1849.04003906
58.97999954 -255.55999756 1849.34997559
58.75999832 -255.52000427 1849.31994629
58.36999893 -255.58000183 1849.13000488
58.86000061 -256.07998657 1848.88000488
58.70999908 -255.67999268 1849.16003418
58.56999969 -255.52000427 1849.25000000
58.45000076 -255.78999329 1848.97998047
58.95000076 -255.72999573 1849.19995117
60.15000153 -255.83999634 1848.46997070
59.90999985 -255.77999878 1848.72998047
59.93000031 -256.25000000 1848.32995605
59.93999863 -256.04000854 1848.48999023
59.75000000 -256.04998779 1848.65002441
60.09999847 -256.04998779 1848.33996582
56.97000122 -253.38000488 1849.15002441
57.02999878 -253.33999634 1848.70996094
57.06000137 -253.63999939 1848.77001953
57.06000137 -253.80999756 1848.92004395
57.02000046 -253.80999756 1849.19995117
56.97999954 -253.57000732 1849.23999023
60.59999847 -254.30999756 1848.98999023
60.63000107 -254.52999878 1848.71997070
60.58000183 -254.50999451 1849.01000977
60.52000046 -254.36000061 1849.39001465
69.12999725 -237.47000122 1849.44995117
69.40000153 -236.96000671 1849.27001953
69.55000305 -237.27999878 1849.18005371
69.27999878 -237.38000488 1849.34997559
69.58000183 -237.05000305 1849.16003418
69.70999908 -237.55999756 1849.07995605
69.76999664 -237.35000610 1849.04003906
59.36000061 -251.83000183 1849.01000977
59.50999832 -251.69999695 1849.29003906
59.43000031 -251.52999878 1849.43994141
59.15999985 -251.63000488 1849.08996582
59.06999969 -251.72000122 1848.90002441
59.20999908 -251.86000061 1848.83996582
59.63999939 -252.05000305 1848.94995117
34.59999847 -192.97999573 1849.41003418
33.97000122 -193.36000061 1849.68994141
33.72999954 -193.03999329 1849.51000977
34.02000046 -193.13999939 1849.55004883
34.02999878 -193.58999634 1849.81994629
34.36000061 -192.94999695 1849.41003418
34.38999939 -193.28999329 1849.60998535
33.86000061 -193.91000366 1850.03002930
34.25000000 -193.46000671 1849.72998047
34.09999847 -192.97000122 1849.43994141
33.81000137 -193.55999756 1849.81994629
70.51000214 -235.94000244 1849.89001465
69.98999786 -236.03999329 1849.75000000
69.95999908 -236.11999512 1849.97998047
70.22000122 -236.00000000 1849.84997559
70.33000183 -236.07000732 1850.16003418
70.70999908 -235.91000366 1849.98999023
70.09999847 -236.14999390 1850.22998047
71.16000366 -238.16000366 1849.76000977
71.08000183 -238.11999512 1849.48999023
71.27999878 -238.05999756 1849.40002441
70.77999878 -238.19000244 1849.45996094
70.95999908 -238.08999634 1849.18005371
70.66000366 -238.16000366 1849.16003418
70.23000336 -238.25000000 1849.30004883
70.09999847 -238.61999512 1849.70996094
69.94000244 -238.30999756 1849.41003418
69.90000153 -238.50000000 1849.61999512
70.30000305 -238.77000427 1849.83996582
70.44000244 -238.33999634 1849.34997559
70.23000336 -238.41000366 1849.45996094
57.97000122 -250.94000244 1849.59997559
58.16999817 -251.10000610 1849.33996582
57.81000137 -251.16000366 1849.45996094
57.68999863 -250.86999512 1849.81994629
57.99000168 -251.24000549 1849.30004883
57.61999893 -251.13999939 1849.57995605
57.63999939 -251.33000183 1849.38000488
35.15999985 -188.19000244 1849.80004883
35.36000061 -187.92999268 1849.73999023
35.13000107 -188.16999817 1850.02001953
34.97999954 -188.35000610 1850.09997559
34.88000107 -188.38000488 1850.46997070
35.25000000 -188.00000000 1850.05004883
35.43000031 -193.41000366 1850.00000000
35.91999817 -193.16999817 1850.18005371
35.56999969 -193.22999573 1849.90002441
35.79000092 -192.91999817 1849.68994141
35.93999863 -193.30999756 1850.40002441
35.72999954 -193.22000122 1850.05004883
35.75000000 -193.08000183 1849.86999512
71.16000366 -236.92999268 1850.48999023
71.30999756 -236.72999573 1850.39001465
71.00000000 -237.08999634 1850.57995605
70.87999725 -236.61000061 1850.58996582
71.08999634 -236.69999695 1850.48999023
70.98000336 -237.30999756 1850.61999512
71.58000183 -236.63999939 1850.23999023
70.66000366 -238.52999878 1849.97998047
70.59999847 -238.46000671 1850.56994629
70.59999847 -238.52999878 1850.18005371
70.72000122 -238.41999817 1850.31005859
70.84999847 -238.38000488 1850.05004883
70.44000244 -238.63000488 1850.27001953
68.86000061 -238.69999695 1849.97998047
68.59999847 -238.77000427 1850.11999512
68.41000366 -238.55999756 1850.06005859
68.61000061 -239.00000000 1850.26000977
68.41999817 -238.33999634 1849.92004395
68.72000122 -238.55999756 1849.93994141
69.04000092 -238.91000366 1850.04003906
38.24000168 -190.63000488 1850.06994629
38.40000153 -190.41999817 1850.14001465
38.50999832 -190.33000183 1849.84997559
38.25999832 -190.63999939 1849.78002930
38.65000153 -190.13999939 1849.94995117
34.24000168 -194.25999451 1850.38000488
34.18000031 -193.97999573 1850.14001465
34.13000107 -194.52000427 1850.56994629
34.63000107 -193.82000732 1850.10998535
34.79000092 -193.97999573 1850.28002930
34.54000092 -194.25000000 1850.43994141
34.29000092 -194.60000610 1850.67004395
34.59000015 -194.00999451 1850.25000000
33.95000076 -194.13000488 1850.21997070
35.00000000 -193.77000427 1850.15002441
59.15000153 -254.69000244 1850.14001465
58.72000122 -254.39999390 1850.41003418
58.43000031 -254.52999878 1850.28002930
58.72000122 -254.58000183 1850.22998047
58.79999924 -254.72000122 1850.09997559
58.56999969 -254.77000427 1850.05004883
58.54999924 -254.28999329 1850.50000000
58.36999893 -250.03999329 1850.46997070
58.45999908 -249.69999695 1850.91003418
58.54999924 -249.83000183 1850.76000977
58.27000046 -249.86000061 1850.68005371
58.24000168 -249.69000244 1850.89001465
56.49000168 -250.19000244 1851.22998047
56.31999969 -250.52000427 1851.31005859
56.61999893 -249.99000549 1851.15002441
56.61999893 -250.55999756 1850.94995117
56.63999939 -250.28999329 1851.02001953
56.63999939 -250.78999329 1850.84997559
56.68999863 -250.99000549 1850.72998047
35.54999924 -193.92999268 1851.16003418
35.22000122 -194.42999268 1851.44995117
35.40999985 -194.25999451 1851.47998047
34.83000183 -194.80999756 1851.42004395
35.29000092 -194.22000122 1851.20996094
35.06000137 -194.53999329 1851.36999512
34.24000168 -195.13000488 1851.38000488
34.34000015 -194.89999390 1851.11999512
34.54999924 -194.96000671 1851.38000488
33.77000046 -195.38000488 1851.38000488
34.11999893 -194.83999634 1850.84997559
33.95999908 -195.08999634 1851.09997559
31.77000046 -195.52000427 1851.15002441
31.80999947 -195.80999756 1851.36999512
32.02999878 -195.58000183 1851.15002441
32.27000046 -195.58999634 1851.11999512
32.11000061 -195.80999756 1851.31994629
31.55999947 -195.50000000 1851.16003418
31.94000053 -195.41999817 1851.04003906
35.68999863 -188.64999390 1851.47998047
35.59000015 -188.91000366 1851.55004883
35.90999985 -188.66999817 1851.58996582
35.63999939 -189.13999939 1851.68005371
35.38999939 -188.80999756 1851.42004395
35.79999924 -188.96000671 1851.67004395
35.54999924 -192.88000488 1851.73999023
35.81000137 -192.35000610 1852.01000977
35.43999863 -192.64999390 1852.00000000
35.77000046 -192.78999329 1851.67004395
35.59999847 -192.47000122 1852.05004883
35.88999939 -192.60000610 1851.76000977
36.08000183 -192.47999573 1851.70996094
36.43000031 -192.61000061 1851.29003906
35.95999908 -192.83999634 1851.47998047
36.20999908 -192.60000610 1851.48999023
67.05000305 -236.44000244 1852.02001953
67.37000275 -236.58999634 1851.79003906
66.69000244 -236.38000488 1852.09997559
66.90000153 -236.32000732 1852.19995117
67.18000031 -236.55000305 1851.84997559
67.37000275 -236.71000671 1851.60998535
56.34000015 -248.88999939 1852.02001953
56.29000092 -249.08999634 1851.92004395
56.50999832 -249.39999390 1851.53002930
56.74000168 -248.69999695 1851.84997559
56.04000092 -249.27999878 1851.96997070
56.22000122 -249.38999939 1851.75000000
56.72000122 -248.97999573 1851.67004395
56.58000183 -248.91999817 1851.81994629
56.09999847 -249.10000610 1852.05004883
56.72999954 -249.39999390 1851.40002441
56.86000061 -249.16000366 1851.47998047
57.02000046 -248.97999573 1851.53002930
57.20000076 -249.08999634 1851.36999512
56.91999817 -249.36999512 1851.31994629
56.20000076 -250.11999512 1851.65002441
56.43000031 -249.99000549 1851.38000488
56.22999954 -250.39999390 1851.48999023
56.29999924 -249.92999268 1851.59997559
56.04000092 -250.22999573 1851.84997559
56.15999985 -249.96000671 1851.79003906
56.52000046 -249.80000305 1851.32995605
35.43000031 -193.47000122 1851.93994141
35.43000031 -193.02000427 1851.90002441
35.40999985 -193.22000122 1851.93994141
35.68000031 -192.97999573 1851.58996582
59.45000076 -252.52999878 1851.95996094
59.56999969 -252.25000000 1851.91003418
59.61000061 -252.55999756 1851.66003418
59.41999817 -252.30000305 1852.16003418
59.72000122 -252.39999390 1851.56994629
59.68999863 -252.19000244 1851.75000000
59.52000046 -252.77000427 1851.69995117
30.27000046 -193.35000610 1852.44995117
30.37999916 -193.05000305 1852.50000000
30.43000031 -193.47000122 1852.04003906
30.00000000 -193.47999573 1852.83996582
30.20000076 -193.22000122 1852.69995117
30.46999931 -193.13999939 1852.25000000
30.52000046 -192.85000610 1852.42004395
30.13999939 -193.47999573 1852.56994629
59.11000061 -249.19999695 1852.04003906
59.15999985 -249.11999512 1852.45996094
58.91999817 -248.80999756 1852.33996582
59.27999878 -249.36000061 1852.27001953
59.00000000 -248.97999573 1852.18994141
59.11999893 -249.13999939 1852.23999023
68.15000153 -237.08999634 1852.77001953
68.36000061 -237.25999451 1852.65002441
68.04000092 -236.85000610 1852.44995117
68.52999878 -237.36000061 1852.45996094
68.18000031 -237.02999878 1852.52001953
30.61000061 -192.66999817 1852.50000000
30.87000084 -192.05000305 1853.00000000
30.62999916 -192.50999451 1852.91003418
30.76000023 -192.27999878 1852.89001465
30.52000046 -192.69000244 1853.00000000
30.63999939 -192.55999756 1852.67004395
29.70000076 -195.38000488 1852.72998047
29.55999947 -195.30999756 1852.89001465
29.61000061 -195.64999390 1852.92004395
29.64999962 -195.96000671 1852.94995117
29.37999916 -195.44999695 1853.15002441
29.40999985 -195.66999817 1853.18005371
68.18000031 -237.64999390 1852.90002441
68.33000183 -237.77999878 1852.69995117
68.23000336 -237.30999756 1852.86999512
68.22000122 -237.97999573 1852.81994629
31.18000031 -191.86999512 1853.06005859
31.43000031 -191.82000732 1853.22998047
31.31999969 -191.72999573 1852.95996094
31.22999954 -191.94999695 1853.27001953
31.32999992 -192.02000427 1853.51000977
34.93000031 -194.69000244 1852.91003418
34.84999847 -194.86999512 1852.80004883
35.04999924 -194.47999573 1852.95996094
35.18999863 -194.17999268 1853.13000488
35.09000015 -194.52999878 1852.77001953
55.75999832 -247.02999878 1853.06005859
56.41999817 -246.60000610 1853.04003906
55.90000153 -246.72999573 1853.22998047
55.99000168 -246.96000671 1852.97998047
55.47999954 -246.67999268 1853.53002930
56.04999924 -246.60000610 1853.26000977
56.25000000 -246.80999756 1852.95996094
55.06000137 -248.30000305 1853.06005859
54.90999985 -248.52000427 1853.22998047
55.00999832 -248.00999451 1853.22998047
55.27999878 -248.25000000 1852.72998047
55.11999893 -248.44999695 1852.92004395
55.16999817 -248.07000732 1852.94995117
30.79999924 -192.28999329 1853.19995117
30.95999908 -192.13999939 1853.22998047
30.68000031 -192.55999756 1853.39001465
30.92000008 -192.30000305 1853.38000488
30.14999962 -193.17999268 1853.38000488
30.20000076 -193.10000610 1853.56994629
29.98999977 -193.41000366 1853.52001953
30.09000015 -193.27000427 1853.06994629
30.26000023 -193.00999451 1853.33996582
29.95999908 -193.46000671 1853.20996094
30.20000076 -193.11000061 1853.16003418
29.28000069 -197.07000732 1853.63000488
29.04999924 -196.61000061 1853.70996094
29.40999985 -196.91000366 1853.51000977
29.21999931 -196.55000305 1853.57995605
29.19000053 -196.77000427 1853.64001465
65.23000336 -234.44000244 1853.72998047
64.69000244 -234.97000122 1853.63000488
64.88999939 -235.25999451 1853.38000488
65.05999756 -234.63000488 1853.68994141
64.94999695 -234.96000671 1853.53002930
64.83000183 -234.60000610 1853.80004883
64.59999847 -234.66000366 1853.85998535
64.40000153 -235.82000732 1853.73999023
64.83000183 -235.63999939 1853.29003906
64.68000031 -235.82000732 1853.40002441
64.69999695 -235.50999451 1853.50000000
64.66999817 -236.25000000 1853.26000977
64.58999634 -236.02000427 1853.43994141
64.73999786 -236.00000000 1853.26000977
64.58999634 -235.66999817 1853.56994629
59.00000000 -250.63000488 1853.18005371
58.83000183 -250.55999756 1853.48999023
58.81000137 -250.83999634 1853.30004883
59.00000000 -250.46000671 1853.31005859
58.68000031 -250.42999268 1853.80004883
58.68000031 -250.80999756 1853.52001953
58.61999893 -251.02000427 1853.43994141
34.86000061 -193.74000549 1853.69995117
34.97000122 -193.96000671 1853.52001953
34.84000015 -194.16999817 1853.69995117
34.79000092 -193.91999817 1853.79003906
35.06000137 -194.16000366 1853.36999512
28.78000069 -195.88000488 1854.01000977
28.88999939 -195.63999939 1853.82995605
29.07999992 -195.97999573 1853.58996582
29.13999939 -195.41999817 1853.44995117
29.04999924 -196.21000671 1853.67004395
28.92000008 -195.97999573 1853.81994629
29.05999947 -195.63000488 1853.58996582
58.33000183 -250.77999878 1853.75000000
58.52000046 -250.80999756 1853.66003418
58.31999969 -250.61000061 1853.85998535
58.00999832 -251.00000000 1853.76000977
58.43999863 -251.05000305 1853.56005859
57.84000015 -250.94000244 1853.85998535
58.20000076 -251.07000732 1853.64001465
34.06000137 -192.94000244 1854.27001953
33.93000031 -192.97999573 1854.43994141
34.09999847 -193.35000610 1854.36999512
34.36000061 -193.03999329 1853.95996094
34.22999954 -193.50000000 1854.28002930
34.22000122 -192.85000610 1854.05004883
34.36000061 -192.83999634 1853.88000488
34.18999863 -193.05999756 1854.17004395
33.97000122 -193.19000244 1854.46997070
34.22000122 -195.24000549 1854.06005859
34.13000107 -195.71000671 1853.56005859
34.09999847 -195.61999512 1853.86999512
34.22999954 -195.36000061 1853.78002930
34.24000168 -195.46000671 1853.50000000
34.25000000 -195.55999756 1853.22998047
67.56999969 -236.63000488 1853.88000488
66.86000061 -236.46000671 1854.58996582
67.12000275 -236.77999878 1854.31994629
67.59999847 -236.83000183 1853.82995605
67.26999664 -236.63999939 1854.18005371
67.66000366 -237.19000244 1853.73999023
67.05999756 -236.44999695 1854.39001465
67.50000000 -237.07000732 1853.91003418
67.41000366 -236.85000610 1854.02001953
57.38999939 -245.27999878 1854.00000000
57.56999969 -245.46000671 1853.89001465
57.34000015 -245.72000122 1853.61999512
57.29999924 -245.55000305 1853.75000000
57.70000076 -245.30000305 1854.05004883
57.11000061 -245.38999939 1853.82995605
58.79000092 -247.55000305 1854.31994629
58.81999969 -247.02000427 1854.10998535
58.74000168 -247.22999573 1854.36999512
58.74000168 -246.91000366 1854.30004883
58.93000031 -247.41999817 1853.86999512
58.72000122 -247.49000549 1854.50000000
58.86999893 -247.49000549 1854.06005859
64.66000366 -233.66999817 1854.19995117
65.41999817 -233.32000732 1854.38000488
64.91000366 -233.22000122 1854.33996582
65.19999695 -233.38999939 1854.33996582
64.98000336 -233.50999451 1854.28002930
64.69000244 -233.27000427 1854.30004883
55.25999832 -248.52000427 1854.45996094
55.43999863 -248.69000244 1854.58996582
55.18999863 -248.72000122 1854.19995117
55.08000183 -248.44999695 1854.26000977
