43.84 -178.25 1846.92
43.72 -178.30 1846.69
43.58 -178.33 1846.48
43.42 -178.34 1846.29
43.25 -178.35 1846.10
43.07 -178.34 1845.94
42.88 -178.32 1845.78
42.67 -178.29 1845.64
42.44 -178.25 1845.49
42.22 -178.20 1845.37
42.41 -178.07 1845.38
42.17 -178.01 1845.27
41.93 -177.94 1845.18
41.69 -177.85 1845.13
41.46 -177.74 1845.13
41.25 -177.62 1845.18
41.04 -177.48 1845.28
40.87 -177.35 1845.40
40.72 -177.21 1845.55
40.59 -177.07 1845.72
40.48 -176.93 1845.91
40.40 -176.80 1846.12
40.35 -176.67 1846.35
40.31 -176.55 1846.57
40.31 -176.44 1846.81
40.32 -176.34 1847.04
40.37 -176.25 1847.28
40.43 -176.18 1847.50
40.54 -176.13 1847.73
40.68 -176.09 1847.94
40.84 -176.08 1848.13
41.04 -176.09 1848.30
41.24 -176.11 1848.45
41.47 -176.16 1848.58
41.70 -176.22 1848.68
41.92 -176.29 1848.75
42.15 -176.38 1848.79
42.38 -176.48 1848.81
42.61 -176.58 1848.82
42.85 -176.69 1848.81
43.07 -176.80 1848.79
43.30 -176.92 1848.75
43.51 -177.05 1848.69
43.72 -177.19 1848.59
43.89 -177.33 1848.46
44.02 -177.47 1848.29
44.11 -177.60 1848.10
44.16 -177.72 1847.88
44.17 -177.83 1847.65
44.14 -177.93 1847.42
44.08 -178.01 1847.18
43.99 -178.08 1846.95
43.87 -178.13 1846.72
43.74 -178.16 1846.50
43.58 -178.18 1846.30
43.42 -178.20 1846.11
43.23 -178.19 1845.94
43.04 -178.18 1845.78
42.83 -178.15 1845.63
42.62 -178.11 1845.50
42.64 -177.93 1845.44
42.41 -177.88 1845.32
42.17 -177.82 1845.21
41.93 -177.75 1845.13
41.70 -177.67 1845.07
41.46 -177.57 1845.06
41.24 -177.44 1845.12
41.05 -177.30 1845.21
40.88 -177.16 1845.34
40.73 -177.02 1845.50
40.62 -176.88 1845.68
40.52 -176.74 1845.88
40.45 -176.61 1846.09
40.41 -176.49 1846.31
40.40 -176.37 1846.54
40.39 -176.26 1846.76
40.42 -176.16 1847.00
40.46 -176.07 1847.24
40.54 -176.00 1847.46
40.66 -175.94 1847.69
40.81 -175.92 1847.89
40.98 -175.91 1848.08
41.18 -175.92 1848.25
41.39 -175.95 1848.40
41.61 -175.99 1848.52
41.85 -176.05 1848.62
42.07 -176.13 1848.68
42.30 -176.22 1848.72
42.53 -176.31 1848.74
42.77 -176.42 1848.74
43.00 -176.54 1848.72
43.22 -176.65 1848.70
43.44 -176.77 1848.66
43.65 -176.90 1848.59
43.84 -177.04 1848.48
44.00 -177.18 1848.34
44.11 -177.31 1848.17
44.19 -177.44 1847.97
44.23 -177.57 1847.75
44.23 -177.67 1847.53
44.20 -177.77 1847.28
44.14 -177.86 1847.05
44.04 -177.93 1846.81
43.93 -177.98 1846.59
43.79 -178.02 1846.38
43.63 -178.03 1846.19
43.45 -178.03 1846.01
43.26 -178.03 1845.85
43.06 -178.01 1845.70
42.85 -177.97 1845.56
42.74 -177.79 1845.39
42.51 -177.74 1845.28
42.27 -177.67 1845.20
42.03 -177.60 1845.11
41.79 -177.52 1845.04
41.56 -177.43 1845.02
41.34 -177.30 1845.05
41.14 -177.17 1845.14
40.96 -177.03 1845.25
40.81 -176.89 1845.39
40.69 -176.75 1845.57
40.59 -176.61 1845.76
40.52 -176.48 1845.97
40.47 -176.34 1846.19
40.45 -176.22 1846.41
40.45 -176.11 1846.64
40.48 -176.01 1846.87
40.54 -175.92 1847.11
40.62 -175.85 1847.33
40.73 -175.78 1847.56
40.87 -175.74 1847.78
41.03 -175.72 1847.98
41.22 -175.72 1848.15
41.44 -175.75 1848.29
41.68 -175.81 1848.41
41.91 -175.88 1848.49
42.14 -175.95 1848.55
42.37 -176.04 1848.59
42.61 -176.13 1848.62
42.83 -176.24 1848.63
43.06 -176.34 1848.63
43.29 -176.45 1848.62
43.51 -176.57 1848.59
43.72 -176.69 1848.53
43.91 -176.83 1848.42
44.06 -176.97 1848.28
44.17 -177.11 1848.11
44.26 -177.25 1847.92
44.30 -177.37 1847.70
44.31 -177.49 1847.47
44.28 -177.59 1847.24
44.23 -177.68 1847.00
44.14 -177.75 1846.77
44.03 -177.82 1846.54
43.89 -177.85 1846.34
43.73 -177.88 1846.14
43.56 -177.88 1845.96
43.36 -177.88 1845.80
43.16 -177.85 1845.65
42.95 -177.82 1845.52
42.72 -177.62 1845.28
42.50 -177.57 1845.18
42.26 -177.50 1845.10
42.03 -177.43 1845.02
41.79 -177.35 1844.97
41.55 -177.24 1844.97
41.33 -177.11 1845.02
41.14 -176.97 1845.11
40.98 -176.83 1845.24
40.84 -176.69 1845.39
40.73 -176.55 1845.57
40.63 -176.41 1845.76
40.58 -176.27 1845.97
40.54 -176.14 1846.20
40.53 -176.02 1846.42
40.54 -175.91 1846.65
40.59 -175.81 1846.88
40.65 -175.73 1847.10
40.75 -175.65 1847.34
40.86 -175.60 1847.55
41.01 -175.56 1847.76
41.19 -175.55 1847.94
41.38 -175.56 1848.10
41.60 -175.59 1848.23
41.84 -175.64 1848.35
42.06 -175.70 1848.45
42.30 -175.77 1848.51
42.54 -175.87 1848.54
42.76 -175.97 1848.55
42.98 -176.07 1848.55
43.22 -176.18 1848.55
43.45 -176.30 1848.53
43.67 -176.42 1848.49
43.86 -176.55 1848.40
44.02 -176.69 1848.27
44.16 -176.84 1848.12
44.26 -176.98 1847.93
44.34 -177.12 1847.73
44.38 -177.25 1847.52
44.38 -177.36 1847.29
44.34 -177.47 1847.05
44.28 -177.55 1846.83
44.18 -177.63 1846.60
44.07 -177.69 1846.38
43.92 -177.73 1846.17
43.76 -177.75 1845.98
43.58 -177.75 1845.81
43.37 -177.73 1845.66
43.17 -177.71 1845.52
42.94 -177.67 1845.39
42.85 -177.49 1845.23
42.62 -177.44 1845.13
42.39 -177.38 1845.04
42.15 -177.30 1844.98
41.91 -177.22 1844.92
41.67 -177.12 1844.90
41.45 -177.01 1844.92
41.25 -176.88 1844.99
41.07 -176.73 1845.10
40.93 -176.59 1845.26
40.80 -176.43 1845.44
40.72 -176.29 1845.63
40.65 -176.15 1845.84
40.62 -176.02 1846.06
40.61 -175.89 1846.28
40.62 -175.78 1846.50
40.65 -175.67 1846.74
40.71 -175.58 1846.97
40.79 -175.49 1847.20
40.92 -175.44 1847.41
41.07 -175.40 1847.62
41.23 -175.38 1847.80
41.43 -175.38 1847.97
41.64 -175.40 1848.12
41.87 -175.44 1848.25
42.09 -175.49 1848.34
42.32 -175.56 1848.40
42.55 -175.65 1848.44
42.79 -175.75 1848.46
43.02 -175.85 1848.48
43.25 -175.96 1848.47
43.48 -176.07 1848.46
43.69 -176.20 1848.41
43.89 -176.33 1848.33
44.06 -176.47 1848.22
44.20 -176.62 1848.06
44.31 -176.77 1847.88
44.39 -176.91 1847.69
44.44 -177.04 1847.48
44.45 -177.16 1847.26
44.43 -177.28 1847.03
44.38 -177.38 1846.80
44.29 -177.45 1846.57
44.19 -177.52 1846.35
44.05 -177.57 1846.14
43.89 -177.60 1845.95
43.70 -177.60 1845.78
43.49 -177.59 1845.62
43.29 -177.57 1845.47
43.07 -177.53 1845.34
42.89 -177.35 1845.14
42.67 -177.29 1845.05
42.43 -177.22 1844.98
42.19 -177.14 1844.92
41.95 -177.05 1844.88
41.72 -176.95 1844.86
41.49 -176.84 1844.87
41.29 -176.71 1844.93
41.11 -176.57 1845.04
40.97 -176.43 1845.18
40.85 -176.27 1845.37
40.76 -176.12 1845.56
40.70 -175.97 1845.78
40.67 -175.84 1845.99
40.67 -175.72 1846.21
40.70 -175.61 1846.45
40.74 -175.50 1846.67
40.80 -175.41 1846.90
40.89 -175.32 1847.12
41.00 -175.26 1847.34
41.15 -175.21 1847.55
41.33 -175.20 1847.73
41.53 -175.20 1847.89
41.74 -175.21 1848.04
41.97 -175.26 1848.16
42.20 -175.31 1848.26
42.44 -175.38 1848.33
42.67 -175.46 1848.37
42.91 -175.56 1848.40
43.14 -175.66 1848.41
43.37 -175.77 1848.41
43.60 -175.89 1848.38
43.81 -176.02 1848.32
44.00 -176.16 1848.23
44.17 -176.31 1848.11
44.30 -176.45 1847.95
44.41 -176.61 1847.77
44.48 -176.75 1847.56
44.52 -176.89 1847.35
44.53 -177.02 1847.12
44.51 -177.13 1846.89
44.46 -177.24 1846.66
44.37 -177.32 1846.43
44.26 -177.39 1846.21
44.11 -177.43 1846.01
43.94 -177.45 1845.83
43.75 -177.45 1845.67
43.54 -177.44 1845.52
43.32 -177.42 1845.37
43.11 -177.39 1845.24
42.92 -177.21 1845.02
42.68 -177.14 1844.94
42.44 -177.06 1844.88
42.21 -176.99 1844.83
41.97 -176.89 1844.80
41.74 -176.79 1844.79
41.52 -176.68 1844.82
41.32 -176.54 1844.88
41.16 -176.40 1845.00
41.03 -176.25 1845.17
40.93 -176.10 1845.35
40.85 -175.94 1845.56
40.79 -175.79 1845.77
40.74 -175.65 1845.98
40.72 -175.52 1846.20
40.73 -175.39 1846.42
40.78 -175.29 1846.64
40.87 -175.20 1846.87
40.99 -175.13 1847.09
41.13 -175.08 1847.29
41.29 -175.04 1847.49
41.46 -175.02 1847.67
41.66 -175.02 1847.83
41.87 -175.03 1847.99
42.10 -175.07 1848.11
42.33 -175.13 1848.19
42.57 -175.20 1848.26
42.80 -175.29 1848.28
43.03 -175.39 1848.30
43.27 -175.50 1848.30
43.50 -175.62 1848.29
43.72 -175.74 1848.25
43.93 -175.87 1848.19
44.12 -176.01 1848.09
44.28 -176.17 1847.96
44.41 -176.32 1847.80
44.51 -176.47 1847.62
44.58 -176.62 1847.41
44.60 -176.75 1847.19
44.60 -176.88 1846.97
44.57 -176.99 1846.74
44.51 -177.09 1846.52
44.42 -177.17 1846.30
44.30 -177.24 1846.09
44.15 -177.29 1845.88
43.99 -177.32 1845.70
43.80 -177.33 1845.52
43.59 -177.32 1845.37
43.36 -177.29 1845.23
43.14 -177.26 1845.11
42.96 -177.08 1844.91
42.72 -177.02 1844.82
42.49 -176.94 1844.78
42.26 -176.85 1844.75
42.03 -176.75 1844.73
41.78 -176.64 1844.72
41.55 -176.53 1844.74
41.37 -176.40 1844.81
41.21 -176.25 1844.94
41.08 -176.10 1845.09
40.98 -175.94 1845.29
40.90 -175.78 1845.48
40.84 -175.63 1845.70
40.81 -175.48 1845.92
40.81 -175.35 1846.14
40.82 -175.23 1846.36
40.87 -175.11 1846.59
40.95 -175.02 1846.81
41.06 -174.94 1847.02
41.20 -174.89 1847.22
41.38 -174.86 1847.42
41.57 -174.84 1847.59
41.77 -174.84 1847.76
41.98 -174.85 1847.90
42.19 -174.88 1848.02
42.43 -174.93 1848.11
42.67 -175.01 1848.17
42.90 -175.10 1848.20
43.14 -175.20 1848.21
43.37 -175.31 1848.21
43.60 -175.43 1848.20
43.82 -175.55 1848.15
44.03 -175.70 1848.08
44.22 -175.84 1847.98
44.37 -176.00 1847.84
44.50 -176.15 1847.67
44.58 -176.30 1847.49
44.64 -176.45 1847.28
44.67 -176.59 1847.07
44.68 -176.72 1846.85
44.65 -176.85 1846.62
44.59 -176.95 1846.40
44.49 -177.04 1846.18
44.37 -177.10 1845.97
44.21 -177.14 1845.77
44.04 -177.18 1845.59
43.85 -177.18 1845.42
43.64 -177.18 1845.27
43.43 -177.16 1845.13
43.19 -177.12 1845.01
43.19 -176.99 1844.86
42.95 -176.94 1844.77
42.71 -176.87 1844.71
42.47 -176.78 1844.68
42.24 -176.68 1844.66
42.00 -176.58 1844.64
41.75 -176.46 1844.65
41.53 -176.34 1844.69
41.35 -176.20 1844.78
41.20 -176.05 1844.92
41.08 -175.90 1845.07
40.99 -175.74 1845.26
40.92 -175.58 1845.47
40.88 -175.43 1845.69
40.86 -175.29 1845.90
40.88 -175.15 1846.13
40.91 -175.03 1846.35
40.98 -174.92 1846.58
41.07 -174.83 1846.80
41.19 -174.75 1847.02
41.34 -174.69 1847.22
41.52 -174.66 1847.41
41.72 -174.65 1847.57
41.93 -174.65 1847.73
42.14 -174.67 1847.86
42.37 -174.71 1847.97
42.61 -174.77 1848.04
42.85 -174.85 1848.09
43.09 -174.95 1848.12
43.32 -175.05 1848.12
43.56 -175.16 1848.11
43.78 -175.28 1848.09
44.00 -175.42 1848.03
44.20 -175.56 1847.95
44.38 -175.71 1847.83
44.51 -175.87 1847.68
44.62 -176.03 1847.50
44.68 -176.18 1847.30
44.72 -176.33 1847.09
44.75 -176.47 1846.87
44.74 -176.61 1846.65
44.71 -176.73 1846.43
44.64 -176.83 1846.21
44.53 -176.92 1845.99
44.39 -176.98 1845.78
44.22 -177.02 1845.59
44.04 -177.04 1845.42
43.83 -177.04 1845.26
43.62 -177.04 1845.11
43.40 -177.02 1844.97
43.29 -176.89 1844.76
43.05 -176.83 1844.68
42.80 -176.76 1844.62
42.56 -176.67 1844.58
42.33 -176.57 1844.57
42.09 -176.46 1844.57
41.86 -176.35 1844.59
41.64 -176.22 1844.62
41.43 -176.09 1844.68
41.27 -175.94 1844.80
41.15 -175.78 1844.97
41.07 -175.61 1845.17
41.02 -175.46 1845.37
40.98 -175.30 1845.59
40.96 -175.15 1845.81
40.96 -175.01 1846.03
40.98 -174.88 1846.25
41.03 -174.77 1846.47
41.11 -174.66 1846.68
41.24 -174.58 1846.90
41.39 -174.52 1847.11
41.58 -174.49 1847.29
41.77 -174.48 1847.45
41.98 -174.47 1847.61
42.20 -174.47 1847.75
42.42 -174.50 1847.87
42.66 -174.56 1847.94
42.90 -174.64 1848.00
43.14 -174.73 1848.02
43.37 -174.84 1848.03
43.61 -174.95 1848.02
43.83 -175.07 1847.98
44.05 -175.21 1847.93
44.25 -175.35 1847.85
44.44 -175.51 1847.73
44.57 -175.67 1847.59
44.68 -175.83 1847.40
44.75 -175.99 1847.21
44.80 -176.14 1847.00
44.81 -176.29 1846.78
44.81 -176.43 1846.56
44.78 -176.56 1846.34
44.71 -176.67 1846.12
44.62 -176.76 1845.90
44.49 -176.83 1845.70
44.33 -176.88 1845.51
44.14 -176.92 1845.32
43.93 -176.93 1845.15
43.72 -176.93 1845.00
43.51 -176.92 1844.86
43.41 -176.77 1844.69
43.17 -176.72 1844.60
42.93 -176.66 1844.53
42.69 -176.57 1844.50
42.45 -176.48 1844.47
42.21 -176.37 1844.47
41.98 -176.25 1844.50
41.77 -176.12 1844.54
41.55 -175.98 1844.61
41.37 -175.83 1844.72
41.24 -175.67 1844.86
41.15 -175.51 1845.04
41.10 -175.35 1845.25
41.06 -175.19 1845.47
41.03 -175.03 1845.69
41.03 -174.89 1845.90
41.03 -174.75 1846.12
41.08 -174.62 1846.34
41.16 -174.52 1846.55
41.28 -174.44 1846.75
41.44 -174.37 1846.96
41.62 -174.33 1847.15
41.81 -174.30 1847.31
42.01 -174.29 1847.48
42.22 -174.29 1847.62
42.45 -174.32 1847.73
42.68 -174.36 1847.82
42.92 -174.43 1847.89
43.16 -174.51 1847.92
43.40 -174.61 1847.93
43.63 -174.73 1847.91
43.85 -174.85 1847.88
44.08 -174.99 1847.82
44.28 -175.13 1847.74
44.47 -175.29 1847.63
44.61 -175.45 1847.49
44.72 -175.61 1847.32
44.80 -175.77 1847.13
44.85 -175.94 1846.92
44.88 -176.09 1846.71
44.88 -176.24 1846.49
44.86 -176.37 1846.27
44.80 -176.49 1846.05
44.71 -176.60 1845.83
44.59 -176.68 1845.63
44.44 -176.74 1845.44
44.26 -176.78 1845.25
44.06 -176.80 1845.08
43.85 -176.81 1844.93
43.63 -176.80 1844.79
43.50 -176.65 1844.60
43.26 -176.61 1844.51
43.01 -176.54 1844.44
42.77 -176.46 1844.40
42.53 -176.37 1844.38
42.29 -176.26 1844.38
42.06 -176.14 1844.41
41.84 -176.01 1844.45
41.62 -175.86 1844.52
41.45 -175.71 1844.62
41.31 -175.55 1844.77
41.21 -175.39 1844.94
41.15 -175.22 1845.14
41.11 -175.06 1845.35
41.08 -174.90 1845.56
41.08 -174.75 1845.78
41.10 -174.60 1846.00
41.15 -174.48 1846.22
41.23 -174.37 1846.43
41.35 -174.28 1846.64
41.49 -174.20 1846.84
41.67 -174.15 1847.03
41.87 -174.11 1847.21
42.07 -174.09 1847.37
42.28 -174.09 1847.51
42.51 -174.11 1847.62
42.74 -174.16 1847.71
42.99 -174.23 1847.77
43.22 -174.32 1847.80
43.47 -174.42 1847.80
43.70 -174.53 1847.79
43.93 -174.66 1847.76
44.15 -174.79 1847.71
44.35 -174.94 1847.63
44.53 -175.09 1847.52
44.68 -175.25 1847.39
44.79 -175.42 1847.22
44.87 -175.59 1847.03
44.93 -175.76 1846.82
44.96 -175.91 1846.62
44.97 -176.07 1846.40
44.94 -176.20 1846.19
44.88 -176.33 1845.97
44.79 -176.43 1845.75
44.67 -176.53 1845.54
44.52 -176.60 1845.35
44.34 -176.64 1845.16
44.14 -176.67 1844.99
43.93 -176.69 1844.83
43.71 -176.68 1844.70
43.52 -176.54 1844.46
43.28 -176.49 1844.38
43.03 -176.43 1844.31
42.79 -176.34 1844.28
42.54 -176.25 1844.27
42.32 -176.13 1844.28
42.08 -176.00 1844.32
41.86 -175.87 1844.37
41.66 -175.72 1844.45
41.47 -175.56 1844.56
41.34 -175.40 1844.71
41.25 -175.23 1844.89
41.20 -175.06 1845.09
41.15 -174.89 1845.29
41.13 -174.73 1845.50
41.13 -174.58 1845.72
41.16 -174.44 1845.93
41.21 -174.30 1846.15
41.30 -174.19 1846.36
41.43 -174.10 1846.57
41.59 -174.02 1846.77
41.76 -173.97 1846.95
41.96 -173.92 1847.13
42.17 -173.90 1847.29
42.39 -173.91 1847.42
42.62 -173.93 1847.52
42.86 -173.98 1847.60
43.10 -174.05 1847.66
43.35 -174.14 1847.68
43.58 -174.24 1847.69
43.82 -174.36 1847.67
44.05 -174.49 1847.63
44.27 -174.63 1847.57
44.47 -174.78 1847.48
44.64 -174.93 1847.37
44.78 -175.10 1847.23
44.90 -175.27 1847.07
44.98 -175.43 1846.88
45.02 -175.60 1846.69
45.05 -175.76 1846.47
45.05 -175.91 1846.26
45.00 -176.05 1846.05
44.93 -176.18 1845.83
44.84 -176.29 1845.61
44.71 -176.38 1845.40
44.56 -176.46 1845.21
44.39 -176.51 1845.02
44.19 -176.55 1844.85
43.98 -176.57 1844.70
43.75 -176.56 1844.57
43.55 -176.42 1844.34
43.31 -176.37 1844.26
43.06 -176.31 1844.20
42.81 -176.23 1844.17
42.58 -176.13 1844.17
42.35 -176.00 1844.20
42.12 -175.87 1844.24
41.89 -175.73 1844.30
41.68 -175.57 1844.39
41.50 -175.41 1844.50
41.37 -175.24 1844.64
41.28 -175.07 1844.82
41.24 -174.90 1845.02
41.21 -174.74 1845.22
41.20 -174.57 1845.44
41.20 -174.42 1845.65
41.24 -174.27 1845.86
41.30 -174.13 1846.08
41.40 -174.02 1846.29
41.52 -173.92 1846.49
41.69 -173.84 1846.69
41.86 -173.79 1846.86
42.06 -173.75 1847.03
42.28 -173.73 1847.19
42.50 -173.72 1847.32
42.72 -173.75 1847.42
42.97 -173.79 1847.50
43.22 -173.87 1847.54
43.46 -173.96 1847.56
43.70 -174.06 1847.57
43.94 -174.18 1847.54
44.15 -174.31 1847.50
44.37 -174.46 1847.43
44.57 -174.61 1847.34
44.74 -174.77 1847.23
44.88 -174.94 1847.09
44.99 -175.11 1846.92
45.06 -175.28 1846.73
45.10 -175.45 1846.54
45.12 -175.61 1846.33
45.10 -175.76 1846.12
45.06 -175.90 1845.91
44.99 -176.04 1845.68
44.89 -176.16 1845.47
44.76 -176.25 1845.27
44.60 -176.33 1845.07
44.42 -176.39 1844.89
44.22 -176.42 1844.73
44.01 -176.44 1844.58
43.78 -176.44 1844.45
43.64 -176.32 1844.24
43.39 -176.27 1844.16
43.14 -176.21 1844.10
42.89 -176.12 1844.07
42.66 -176.02 1844.07
42.42 -175.90 1844.09
42.19 -175.78 1844.13
41.97 -175.64 1844.19
41.77 -175.49 1844.28
41.59 -175.32 1844.38
41.45 -175.15 1844.53
41.36 -174.97 1844.71
41.31 -174.80 1844.91
41.27 -174.62 1845.11
41.25 -174.45 1845.32
41.26 -174.29 1845.52
41.28 -174.14 1845.73
41.35 -174.00 1845.95
41.44 -173.88 1846.15
41.57 -173.77 1846.36
41.72 -173.69 1846.55
41.90 -173.63 1846.72
42.10 -173.58 1846.90
42.32 -173.55 1847.05
42.54 -173.54 1847.19
42.77 -173.56 1847.29
43.02 -173.59 1847.38
43.26 -173.66 1847.42
43.50 -173.75 1847.44
43.75 -173.86 1847.44
43.98 -173.98 1847.40
44.21 -174.12 1847.37
44.43 -174.26 1847.30
44.63 -174.41 1847.22
44.80 -174.56 1847.11
44.95 -174.73 1846.98
45.06 -174.91 1846.81
45.14 -175.09 1846.63
45.18 -175.26 1846.43
45.20 -175.43 1846.22
45.18 -175.58 1846.02
45.14 -175.73 1845.80
45.07 -175.87 1845.59
44.96 -175.99 1845.38
44.84 -176.09 1845.18
44.68 -176.18 1844.98
44.51 -176.25 1844.80
44.31 -176.30 1844.62
44.09 -176.33 1844.47
43.87 -176.33 1844.34
43.63 -176.20 1844.09
43.38 -176.15 1844.03
43.14 -176.09 1843.98
42.89 -176.00 1843.96
42.65 -175.90 1843.96
42.40 -175.77 1843.99
42.19 -175.63 1844.05
41.97 -175.49 1844.12
41.78 -175.33 1844.21
41.61 -175.16 1844.34
41.49 -174.98 1844.49
41.40 -174.81 1844.66
41.34 -174.62 1844.85
41.31 -174.45 1845.05
41.30 -174.27 1845.26
41.30 -174.11 1845.47
41.35 -173.96 1845.68
41.42 -173.82 1845.89
41.52 -173.70 1846.09
41.66 -173.59 1846.29
41.81 -173.50 1846.48
42.00 -173.44 1846.65
42.21 -173.39 1846.81
42.44 -173.37 1846.96
42.66 -173.37 1847.08
42.91 -173.38 1847.19
43.16 -173.43 1847.27
43.42 -173.50 1847.31
43.67 -173.58 1847.33
43.91 -173.70 1847.32
44.13 -173.82 1847.28
44.35 -173.96 1847.22
44.57 -174.11 1847.15
44.77 -174.26 1847.06
44.95 -174.43 1846.95
45.07 -174.60 1846.81
45.17 -174.78 1846.64
45.23 -174.96 1846.45
45.27 -175.14 1846.25
45.27 -175.30 1846.04
45.23 -175.45 1845.84
45.17 -175.60 1845.63
45.09 -175.74 1845.42
44.98 -175.87 1845.20
44.85 -175.97 1845.00
44.69 -176.07 1844.80
44.52 -176.14 1844.63
44.31 -176.19 1844.46
44.09 -176.21 1844.32
43.86 -176.22 1844.19
43.54 -176.08 1843.93
43.29 -176.02 1843.87
43.04 -175.94 1843.84
42.80 -175.84 1843.84
42.55 -175.72 1843.87
42.33 -175.59 1843.91
42.12 -175.45 1843.99
41.92 -175.29 1844.08
41.74 -175.12 1844.19
41.59 -174.95 1844.32
41.48 -174.76 1844.48
41.40 -174.58 1844.66
41.36 -174.40 1844.85
41.34 -174.22 1845.06
41.34 -174.05 1845.26
41.37 -173.88 1845.47
41.43 -173.73 1845.68
41.52 -173.60 1845.88
41.64 -173.47 1846.09
41.79 -173.37 1846.28
41.97 -173.30 1846.45
42.18 -173.24 1846.62
42.40 -173.21 1846.76
42.63 -173.19 1846.90
42.87 -173.19 1847.02
43.13 -173.22 1847.11
43.38 -173.27 1847.16
43.62 -173.35 1847.20
43.87 -173.45 1847.20
44.11 -173.57 1847.17
44.33 -173.70 1847.13
44.56 -173.85 1847.06
44.76 -174.00 1846.97
44.94 -174.17 1846.86
45.09 -174.34 1846.73
45.21 -174.52 1846.58
45.29 -174.70 1846.40
45.33 -174.88 1846.21
45.34 -175.05 1846.01
45.33 -175.22 1845.81
45.29 -175.37 1845.61
45.22 -175.52 1845.39
45.11 -175.66 1845.18
44.98 -175.78 1844.98
44.83 -175.89 1844.78
44.66 -175.98 1844.59
44.48 -176.05 1844.41
44.26 -176.10 1844.25
44.03 -176.12 1844.12
43.78 -176.11 1844.01
43.48 -175.97 1843.77
43.23 -175.90 1843.73
42.97 -175.81 1843.72
42.73 -175.69 1843.75
42.50 -175.56 1843.79
42.28 -175.42 1843.85
42.07 -175.25 1843.94
41.87 -175.08 1844.04
41.70 -174.92 1844.15
41.56 -174.74 1844.29
41.47 -174.56 1844.45
41.41 -174.37 1844.64
41.40 -174.19 1844.85
41.40 -174.00 1845.06
41.42 -173.83 1845.26
41.45 -173.67 1845.46
41.52 -173.52 1845.66
41.62 -173.38 1845.86
41.77 -173.27 1846.06
41.93 -173.17 1846.24
42.12 -173.10 1846.41
42.34 -173.05 1846.57
42.56 -173.02 1846.71
42.81 -173.01 1846.83
43.05 -173.03 1846.92
43.31 -173.06 1847.00
43.55 -173.12 1847.04
43.80 -173.20 1847.06
44.05 -173.30 1847.06
44.29 -173.43 1847.02
44.51 -173.58 1846.95
44.72 -173.74 1846.86
44.92 -173.90 1846.77
45.10 -174.07 1846.66
45.24 -174.25 1846.52
45.34 -174.43 1846.36
45.40 -174.61 1846.18
45.42 -174.81 1845.97
45.42 -174.98 1845.77
45.39 -175.14 1845.57
45.32 -175.30 1845.37
45.23 -175.44 1845.17
45.12 -175.57 1844.96
44.96 -175.70 1844.75
44.80 -175.80 1844.56
44.62 -175.89 1844.37
44.43 -175.96 1844.20
44.22 -176.01 1844.06
43.98 -176.02 1843.94
43.72 -176.01 1843.83
43.57 -175.88 1843.65
43.32 -175.82 1843.61
43.07 -175.73 1843.61
42.83 -175.61 1843.63
42.59 -175.49 1843.66
42.36 -175.35 1843.72
42.15 -175.20 1843.80
41.96 -175.03 1843.90
41.81 -174.86 1844.03
41.69 -174.67 1844.17
41.59 -174.48 1844.35
41.52 -174.29 1844.52
41.47 -174.09 1844.72
41.44 -173.90 1844.92
41.44 -173.71 1845.12
41.46 -173.55 1845.31
41.54 -173.39 1845.52
41.65 -173.25 1845.72
41.80 -173.13 1845.91
41.96 -173.03 1846.09
42.15 -172.95 1846.26
42.36 -172.90 1846.41
42.59 -172.86 1846.55
42.82 -172.84 1846.67
43.07 -172.83 1846.78
43.32 -172.85 1846.86
43.57 -172.91 1846.91
43.83 -172.99 1846.93
44.08 -173.09 1846.92
44.32 -173.22 1846.89
44.55 -173.35 1846.83
44.76 -173.51 1846.75
44.95 -173.68 1846.65
45.11 -173.85 1846.53
45.25 -174.04 1846.39
45.36 -174.22 1846.23
45.44 -174.41 1846.06
45.48 -174.60 1845.87
45.49 -174.79 1845.66
45.46 -174.96 1845.46
45.39 -175.12 1845.27
45.30 -175.26 1845.06
45.17 -175.40 1844.86
45.04 -175.53 1844.66
44.88 -175.66 1844.46
44.72 -175.76 1844.27
44.53 -175.84 1844.10
44.32 -175.90 1843.95
44.08 -175.93 1843.81
43.82 -175.92 1843.72
43.73 -175.81 1843.55
43.47 -175.76 1843.50
43.21 -175.68 1843.47
42.95 -175.58 1843.48
42.71 -175.45 1843.52
42.48 -175.30 1843.59
42.26 -175.15 1843.67
42.07 -174.98 1843.77
41.88 -174.81 1843.87
41.72 -174.63 1844.00
41.61 -174.44 1844.15
41.54 -174.25 1844.33
41.49 -174.05 1844.52
41.48 -173.85 1844.72
41.48 -173.66 1844.93
41.49 -173.48 1845.12
41.55 -173.32 1845.32
41.65 -173.16 1845.52
41.78 -173.03 1845.71
41.94 -172.91 1845.90
42.14 -172.82 1846.07
42.34 -172.74 1846.23
42.56 -172.69 1846.38
42.79 -172.65 1846.50
43.04 -172.65 1846.61
43.30 -172.66 1846.70
43.57 -172.70 1846.77
43.84 -172.75 1846.81
44.09 -172.84 1846.82
44.33 -172.96 1846.79
44.56 -173.11 1846.72
44.76 -173.26 1846.64
44.96 -173.43 1846.54
45.12 -173.61 1846.42
45.27 -173.79 1846.29
45.39 -173.98 1846.13
45.48 -174.17 1845.96
45.54 -174.37 1845.78
45.56 -174.56 1845.59
45.55 -174.74 1845.39
45.49 -174.91 1845.19
45.41 -175.07 1844.99
45.30 -175.23 1844.79
45.16 -175.37 1844.58
45.01 -175.49 1844.39
44.84 -175.60 1844.20
44.64 -175.69 1844.03
44.43 -175.76 1843.88
44.21 -175.80 1843.74
43.97 -175.82 1843.63
43.87 -175.71 1843.48
43.60 -175.69 1843.41
43.34 -175.63 1843.37
43.07 -175.55 1843.36
42.83 -175.43 1843.39
42.61 -175.30 1843.45
42.40 -175.14 1843.53
42.20 -174.98 1843.63
42.00 -174.81 1843.73
41.83 -174.63 1843.85
41.70 -174.44 1843.99
41.62 -174.24 1844.16
41.55 -174.04 1844.34
41.52 -173.83 1844.54
41.50 -173.63 1844.73
41.51 -173.44 1844.93
41.55 -173.25 1845.13
41.63 -173.09 1845.32
41.75 -172.94 1845.51
41.91 -172.81 1845.70
42.10 -172.70 1845.87
42.30 -172.61 1846.03
42.52 -172.54 1846.18
42.74 -172.49 1846.31
42.99 -172.46 1846.42
43.25 -172.46 1846.51
43.52 -172.48 1846.59
43.79 -172.52 1846.64
44.06 -172.60 1846.66
44.31 -172.70 1846.65
44.55 -172.84 1846.59
44.78 -172.98 1846.53
44.97 -173.15 1846.43
45.15 -173.32 1846.32
45.29 -173.51 1846.19
45.42 -173.70 1846.04
45.51 -173.90 1845.87
45.58 -174.10 1845.69
45.62 -174.31 1845.50
45.62 -174.51 1845.30
45.58 -174.69 1845.10
45.51 -174.86 1844.91
45.40 -175.01 1844.71
45.26 -175.16 1844.52
45.12 -175.30 1844.33
44.97 -175.43 1844.14
44.79 -175.55 1843.96
44.60 -175.64 1843.80
44.37 -175.70 1843.67
44.12 -175.72 1843.56
43.82 -175.62 1843.34
43.55 -175.58 1843.30
43.28 -175.51 1843.28
43.03 -175.42 1843.29
42.77 -175.31 1843.32
42.55 -175.17 1843.38
42.33 -175.02 1843.46
42.13 -174.85 1843.56
41.96 -174.67 1843.67
41.80 -174.48 1843.81
41.67 -174.29 1843.95
41.58 -174.09 1844.11
41.52 -173.89 1844.29
41.52 -173.67 1844.49
41.52 -173.47 1844.68
41.54 -173.28 1844.87
41.60 -173.10 1845.05
41.70 -172.92 1845.25
41.84 -172.77 1845.44
42.01 -172.63 1845.62
42.20 -172.52 1845.79
42.40 -172.43 1845.94
42.63 -172.36 1846.07
42.87 -172.31 1846.19
43.14 -172.28 1846.30
43.40 -172.28 1846.38
43.67 -172.30 1846.44
43.94 -172.34 1846.49
44.21 -172.42 1846.49
44.46 -172.54 1846.46
44.69 -172.67 1846.40
44.91 -172.83 1846.31
45.11 -173.00 1846.21
45.29 -173.18 1846.10
45.43 -173.37 1845.97
45.55 -173.57 1845.81
45.63 -173.77 1845.64
45.68 -173.99 1845.46
45.71 -174.19 1845.27
45.70 -174.39 1845.08
45.65 -174.58 1844.89
45.56 -174.76 1844.69
45.44 -174.92 1844.50
45.30 -175.07 1844.31
45.14 -175.22 1844.12
44.97 -175.35 1843.95
44.79 -175.46 1843.79
44.57 -175.55 1843.63
44.33 -175.61 1843.51
44.08 -175.63 1843.41
43.94 -175.51 1843.27
43.66 -175.49 1843.22
43.39 -175.45 1843.19
43.12 -175.37 1843.19
42.87 -175.27 1843.22
42.63 -175.15 1843.26
42.41 -174.99 1843.34
42.21 -174.81 1843.45
42.03 -174.63 1843.56
41.85 -174.45 1843.68
41.69 -174.27 1843.81
41.58 -174.07 1843.96
41.53 -173.85 1844.14
41.51 -173.63 1844.33
41.51 -173.42 1844.52
41.53 -173.22 1844.70
41.59 -173.03 1844.89
41.69 -172.84 1845.08
41.82 -172.68 1845.26
41.98 -172.53 1845.44
42.17 -172.40 1845.60
42.38 -172.31 1845.74
42.61 -172.22 1845.88
42.86 -172.16 1845.99
43.11 -172.13 1846.09
43.38 -172.12 1846.17
43.65 -172.13 1846.23
43.92 -172.18 1846.26
44.20 -172.24 1846.27
44.45 -172.34 1846.25
44.70 -172.45 1846.21
44.93 -172.59 1846.15
45.14 -172.76 1846.05
45.32 -172.93 1845.95
45.46 -173.12 1845.81
45.59 -173.32 1845.66
45.68 -173.54 1845.50
45.74 -173.75 1845.32
45.77 -173.96 1845.14
45.78 -174.16 1844.96
45.73 -174.36 1844.77
45.65 -174.55 1844.58
45.54 -174.72 1844.40
45.41 -174.88 1844.22
45.25 -175.04 1844.04
45.09 -175.19 1843.86
44.90 -175.32 1843.70
44.70 -175.42 1843.56
44.45 -175.48 1843.43
44.20 -175.52 1843.34
43.88 -175.38 1843.10
43.60 -175.34 1843.06
43.32 -175.29 1843.04
43.06 -175.21 1843.04
42.80 -175.10 1843.07
42.57 -174.97 1843.14
42.36 -174.79 1843.24
42.16 -174.62 1843.34
41.96 -174.44 1843.45
41.80 -174.26 1843.57
41.66 -174.07 1843.70
41.58 -173.85 1843.87
41.54 -173.64 1844.05
41.53 -173.42 1844.24
41.53 -173.21 1844.43
41.57 -173.01 1844.62
41.64 -172.83 1844.81
41.75 -172.65 1844.99
41.90 -172.49 1845.18
42.07 -172.35 1845.35
42.27 -172.23 1845.51
42.48 -172.13 1845.65
42.72 -172.06 1845.78
42.98 -172.01 1845.89
43.25 -171.99 1845.98
43.52 -171.98 1846.05
43.79 -172.01 1846.10
44.06 -172.06 1846.12
44.33 -172.13 1846.13
44.59 -172.23 1846.11
44.83 -172.36 1846.05
45.05 -172.51 1845.98
45.25 -172.68 1845.88
45.42 -172.87 1845.75
45.57 -173.07 1845.61
45.69 -173.26 1845.47
45.78 -173.47 1845.31
45.81 -173.69 1845.12
45.84 -173.91 1844.93
45.85 -174.12 1844.74
45.77 -174.31 1844.55
45.67 -174.48 1844.37
45.56 -174.67 1844.18
45.43 -174.83 1844.00
45.27 -174.98 1843.82
45.09 -175.12 1843.65
44.88 -175.22 1843.50
44.65 -175.30 1843.37
44.41 -175.36 1843.26
44.14 -175.39 1843.16
43.88 -175.32 1843.02
43.60 -175.29 1842.99
43.32 -175.24 1842.98
43.05 -175.16 1843.00
42.80 -175.05 1843.04
42.57 -174.91 1843.11
42.34 -174.75 1843.20
42.15 -174.59 1843.29
41.96 -174.40 1843.41
41.80 -174.21 1843.54
41.67 -174.01 1843.67
41.57 -173.80 1843.83
41.53 -173.57 1844.01
41.54 -173.34 1844.19
41.55 -173.13 1844.37
41.59 -172.92 1844.55
41.67 -172.71 1844.72
41.77 -172.52 1844.90
41.92 -172.34 1845.07
42.10 -172.19 1845.23
42.31 -172.06 1845.37
42.54 -171.96 1845.50
42.79 -171.89 1845.60
43.05 -171.83 1845.70
43.31 -171.80 1845.77
43.58 -171.79 1845.83
43.86 -171.81 1845.87
44.14 -171.85 1845.89
44.41 -171.93 1845.87
44.67 -172.02 1845.84
44.91 -172.14 1845.79
45.15 -172.29 1845.72
45.34 -172.46 1845.62
45.51 -172.65 1845.50
45.66 -172.84 1845.36
45.77 -173.06 1845.21
45.85 -173.28 1845.05
45.89 -173.50 1844.87
45.91 -173.72 1844.70
45.87 -173.93 1844.52
45.82 -174.14 1844.34
45.74 -174.34 1844.17
45.62 -174.53 1843.99
45.48 -174.71 1843.82
45.31 -174.87 1843.66
45.12 -175.02 1843.50
44.91 -175.15 1843.35
44.67 -175.24 1843.24
44.42 -175.30 1843.14
44.15 -175.32 1843.07
43.99 -175.21 1842.94
43.70 -175.20 1842.90
43.42 -175.16 1842.89
43.14 -175.10 1842.90
42.88 -175.01 1842.93
42.63 -174.89 1842.99
42.41 -174.74 1843.06
42.19 -174.57 1843.16
42.00 -174.39 1843.27
41.83 -174.19 1843.40
41.70 -173.99 1843.53
41.59 -173.78 1843.68
41.53 -173.56 1843.84
41.52 -173.33 1844.02
41.53 -173.11 1844.19
41.58 -172.88 1844.37
41.65 -172.68 1844.54
41.74 -172.47 1844.71
41.88 -172.29 1844.87
42.06 -172.11 1845.03
42.27 -171.98 1845.17
42.49 -171.86 1845.29
42.74 -171.77 1845.40
42.99 -171.70 1845.49
43.25 -171.64 1845.57
43.53 -171.62 1845.63
43.81 -171.63 1845.67
44.09 -171.66 1845.68
44.37 -171.73 1845.67
44.63 -171.81 1845.65
44.88 -171.92 1845.60
45.12 -172.07 1845.53
45.34 -172.24 1845.43
45.52 -172.41 1845.32
45.68 -172.61 1845.19
45.80 -172.83 1845.04
45.89 -173.04 1844.89
45.94 -173.27 1844.72
45.97 -173.50 1844.55
45.96 -173.72 1844.38
45.91 -173.93 1844.21
45.84 -174.15 1844.03
45.73 -174.35 1843.86
45.60 -174.54 1843.70
45.43 -174.70 1843.55
45.24 -174.86 1843.40
45.01 -174.99 1843.26
44.78 -175.09 1843.15
44.53 -175.16 1843.06
44.25 -175.20 1842.99
43.78 -175.09 1842.82
43.49 -175.07 1842.80
43.21 -175.03 1842.79
42.94 -174.95 1842.82
42.70 -174.83 1842.87
42.47 -174.69 1842.95
42.26 -174.52 1843.05
42.07 -174.34 1843.16
41.90 -174.15 1843.28
41.74 -173.96 1843.40
41.62 -173.75 1843.54
41.56 -173.53 1843.70
41.53 -173.29 1843.86
41.55 -173.06 1844.04
41.59 -172.84 1844.20
41.65 -172.62 1844.37
41.75 -172.42 1844.53
41.87 -172.22 1844.69
42.04 -172.04 1844.84
42.25 -171.89 1844.97
42.46 -171.76 1845.09
42.70 -171.66 1845.19
42.95 -171.58 1845.28
43.22 -171.53 1845.35
43.50 -171.50 1845.40
43.78 -171.50 1845.44
44.06 -171.52 1845.46
44.33 -171.56 1845.46
44.61 -171.64 1845.43
44.87 -171.75 1845.38
45.11 -171.88 1845.32
45.33 -172.03 1845.23
45.52 -172.21 1845.13
45.69 -172.40 1845.00
45.82 -172.61 1844.87
45.91 -172.83 1844.72
45.97 -173.05 1844.56
46.00 -173.29 1844.39
45.99 -173.52 1844.22
45.95 -173.73 1844.06
45.87 -173.95 1843.90
45.77 -174.15 1843.74
45.64 -174.35 1843.57
45.48 -174.53 1843.42
45.29 -174.69 1843.28
45.09 -174.84 1843.15
44.86 -174.95 1843.04
44.61 -175.04 1842.95
44.34 -175.09 1842.88
44.05 -175.10 1842.84
43.83 -175.02 1842.68
43.55 -174.99 1842.68
43.27 -174.94 1842.69
43.00 -174.86 1842.72
42.76 -174.76 1842.77
42.51 -174.62 1842.85
42.30 -174.47 1842.94
42.11 -174.28 1843.05
41.94 -174.09 1843.17
41.78 -173.89 1843.29
41.64 -173.69 1843.42
41.55 -173.46 1843.57
41.52 -173.23 1843.73
41.53 -173.00 1843.89
41.57 -172.77 1844.06
41.65 -172.54 1844.22
41.75 -172.33 1844.38
41.89 -172.13 1844.53
42.05 -171.95 1844.66
42.24 -171.79 1844.80
42.46 -171.64 1844.91
42.70 -171.53 1845.01
42.95 -171.44 1845.10
43.21 -171.38 1845.17
43.49 -171.34 1845.21
43.77 -171.34 1845.24
44.05 -171.36 1845.25
44.33 -171.41 1845.25
44.59 -171.48 1845.22
44.85 -171.57 1845.18
45.10 -171.69 1845.11
45.33 -171.85 1845.02
45.54 -172.04 1844.91
45.70 -172.23 1844.79
45.83 -172.43 1844.66
45.92 -172.65 1844.52
45.99 -172.89 1844.36
46.02 -173.13 1844.20
46.02 -173.36 1844.04
45.98 -173.59 1843.87
45.92 -173.80 1843.72
45.81 -174.02 1843.56
45.68 -174.22 1843.41
45.53 -174.41 1843.26
45.34 -174.58 1843.12
45.13 -174.73 1843.00
44.89 -174.84 1842.91
44.64 -174.92 1842.83
44.37 -174.98 1842.76
44.09 -175.02 1842.71
43.57 -174.93 1842.55
43.30 -174.87 1842.57
43.03 -174.79 1842.61
42.77 -174.68 1842.67
42.54 -174.54 1842.75
42.32 -174.39 1842.84
42.12 -174.21 1842.94
41.95 -174.02 1843.06
41.79 -173.81 1843.18
41.67 -173.61 1843.31
41.57 -173.38 1843.46
41.53 -173.15 1843.61
41.53 -172.91 1843.77
41.56 -172.67 1843.93
41.64 -172.45 1844.07
41.74 -172.24 1844.22
41.88 -172.04 1844.36
42.05 -171.85 1844.50
42.24 -171.67 1844.63
42.45 -171.53 1844.74
42.68 -171.41 1844.83
42.94 -171.32 1844.91
43.21 -171.24 1844.97
43.49 -171.20 1845.01
43.78 -171.19 1845.04
44.06 -171.21 1845.05
44.34 -171.25 1845.03
44.62 -171.32 1845.00
44.87 -171.42 1844.96
45.11 -171.55 1844.88
45.33 -171.71 1844.79
45.52 -171.89 1844.68
45.70 -172.08 1844.57
45.84 -172.28 1844.44
45.95 -172.51 1844.30
46.01 -172.73 1844.16
46.05 -172.97 1844.00
46.05 -173.21 1843.84
46.01 -173.45 1843.68
45.95 -173.67 1843.53
45.85 -173.88 1843.38
45.72 -174.09 1843.24
45.56 -174.28 1843.10
45.37 -174.46 1842.97
45.17 -174.62 1842.85
44.93 -174.74 1842.76
44.68 -174.83 1842.69
44.42 -174.88 1842.63
44.13 -174.93 1842.58
43.84 -174.94 1842.56
43.71 -174.83 1842.45
43.43 -174.80 1842.46
43.16 -174.74 1842.49
42.90 -174.64 1842.54
42.66 -174.53 1842.60
42.43 -174.39 1842.68
42.22 -174.22 1842.78
42.04 -174.04 1842.89
41.88 -173.83 1843.01
41.75 -173.62 1843.14
41.65 -173.40 1843.28
41.57 -173.17 1843.42
41.54 -172.93 1843.57
41.55 -172.69 1843.72
41.60 -172.46 1843.87
41.69 -172.23 1844.02
41.82 -172.02 1844.15
41.97 -171.82 1844.28
42.15 -171.64 1844.41
42.36 -171.48 1844.51
42.59 -171.35 1844.61
42.83 -171.24 1844.68
43.10 -171.16 1844.74
43.38 -171.11 1844.79
43.65 -171.07 1844.82
43.93 -171.07 1844.82
44.20 -171.10 1844.82
44.48 -171.16 1844.79
44.74 -171.25 1844.74
45.00 -171.36 1844.68
45.23 -171.50 1844.60
45.45 -171.67 1844.50
45.64 -171.85 1844.40
45.79 -172.05 1844.28
45.92 -172.26 1844.14
46.00 -172.49 1844.00
46.05 -172.72 1843.86
46.07 -172.97 1843.70
46.04 -173.20 1843.56
45.99 -173.43 1843.41
45.89 -173.65 1843.27
45.77 -173.87 1843.13
45.64 -174.07 1842.99
45.48 -174.27 1842.86
45.29 -174.43 1842.75
45.07 -174.57 1842.66
44.81 -174.69 1842.57
44.55 -174.77 1842.52
44.27 -174.82 1842.48
43.98 -174.84 1842.45
43.66 -174.71 1842.28
43.38 -174.67 1842.30
43.10 -174.60 1842.34
42.85 -174.50 1842.39
42.61 -174.38 1842.46
42.38 -174.23 1842.54
42.18 -174.06 1842.65
42.01 -173.87 1842.76
41.85 -173.65 1842.89
41.74 -173.44 1843.02
41.63 -173.23 1843.15
41.54 -173.00 1843.29
41.52 -172.76 1843.44
41.55 -172.53 1843.58
41.62 -172.30 1843.73
41.73 -172.09 1843.87
41.87 -171.88 1844.01
42.02 -171.69 1844.13
42.21 -171.51 1844.26
42.42 -171.36 1844.36
42.66 -171.22 1844.45
42.90 -171.12 1844.52
43.16 -171.05 1844.58
43.44 -171.00 1844.62
43.73 -170.97 1844.64
44.01 -170.97 1844.65
44.28 -171.01 1844.64
44.55 -171.07 1844.61
44.81 -171.16 1844.56
45.06 -171.28 1844.50
45.29 -171.44 1844.41
45.50 -171.60 1844.31
45.68 -171.79 1844.20
45.82 -171.99 1844.08
45.94 -172.21 1843.94
46.02 -172.43 1843.80
46.06 -172.68 1843.65
46.07 -172.91 1843.50
46.04 -173.15 1843.35
45.98 -173.38 1843.20
45.88 -173.60 1843.06
45.76 -173.81 1842.92
45.62 -174.01 1842.79
45.44 -174.19 1842.67
45.24 -174.36 1842.56
45.02 -174.49 1842.47
44.76 -174.59 1842.40
44.50 -174.67 1842.34
44.21 -174.71 1842.30
43.93 -174.73 1842.28
43.64 -174.64 1842.20
43.37 -174.61 1842.22
43.10 -174.53 1842.27
42.85 -174.44 1842.33
42.61 -174.32 1842.40
42.39 -174.17 1842.49
42.20 -174.00 1842.59
42.03 -173.81 1842.70
41.89 -173.61 1842.81
41.76 -173.40 1842.94
41.66 -173.17 1843.07
41.58 -172.94 1843.21
41.54 -172.70 1843.35
41.54 -172.46 1843.48
41.61 -172.23 1843.61
41.73 -172.01 1843.74
41.88 -171.80 1843.86
42.05 -171.60 1843.97
42.25 -171.42 1844.07
42.46 -171.26 1844.17
42.68 -171.12 1844.24
42.94 -171.01 1844.30
43.19 -170.92 1844.35
43.47 -170.87 1844.38
43.75 -170.84 1844.39
44.03 -170.84 1844.39
44.30 -170.87 1844.37
44.57 -170.93 1844.33
44.83 -171.02 1844.28
45.08 -171.13 1844.21
45.29 -171.28 1844.12
45.49 -171.45 1844.03
45.66 -171.64 1843.91
45.81 -171.84 1843.79
45.93 -172.05 1843.67
46.01 -172.28 1843.54
46.05 -172.53 1843.40
46.05 -172.77 1843.26
46.02 -173.00 1843.12
45.97 -173.23 1842.99
45.88 -173.46 1842.86
45.76 -173.68 1842.73
45.61 -173.89 1842.62
45.43 -174.09 1842.51
45.22 -174.25 1842.41
45.00 -174.38 1842.34
44.74 -174.48 1842.29
44.48 -174.56 1842.24
44.20 -174.61 1842.21
43.91 -174.64 1842.20
43.90 -174.55 1842.07
43.62 -174.56 1842.08
43.35 -174.53 1842.11
43.08 -174.47 1842.15
42.83 -174.37 1842.21
42.59 -174.24 1842.29
42.38 -174.08 1842.38
42.19 -173.90 1842.48
42.03 -173.71 1842.60
41.88 -173.51 1842.71
41.76 -173.29 1842.83
41.65 -173.07 1842.96
41.57 -172.84 1843.09
41.54 -172.60 1843.22
41.57 -172.36 1843.35
41.65 -172.12 1843.48
41.76 -171.90 1843.60
41.91 -171.69 1843.71
42.09 -171.50 1843.81
42.29 -171.31 1843.90
42.51 -171.15 1843.98
42.73 -171.01 1844.05
42.97 -170.89 1844.11
43.21 -170.79 1844.16
43.49 -170.73 1844.18
43.77 -170.71 1844.19
44.05 -170.72 1844.17
44.32 -170.76 1844.14
44.58 -170.83 1844.09
44.84 -170.92 1844.03
45.07 -171.04 1843.96
45.29 -171.18 1843.88
45.50 -171.34 1843.78
45.68 -171.53 1843.67
45.83 -171.73 1843.56
45.94 -171.94 1843.44
46.01 -172.19 1843.30
46.04 -172.43 1843.17
46.03 -172.67 1843.04
45.99 -172.91 1842.91
45.93 -173.14 1842.78
45.83 -173.37 1842.66
45.72 -173.59 1842.54
45.57 -173.80 1842.43
45.39 -173.99 1842.33
45.18 -174.15 1842.25
44.96 -174.30 1842.18
44.71 -174.40 1842.13
44.44 -174.49 1842.09
44.18 -174.53 1842.07
43.54 -174.47 1841.96
43.27 -174.42 1842.00
43.02 -174.35 1842.05
42.77 -174.24 1842.12
42.55 -174.10 1842.21
42.34 -173.95 1842.30
42.16 -173.77 1842.40
41.99 -173.58 1842.51
41.85 -173.38 1842.62
41.72 -173.16 1842.74
41.64 -172.93 1842.86
41.57 -172.70 1842.99
41.55 -172.46 1843.12
41.58 -172.22 1843.24
41.67 -171.99 1843.35
41.80 -171.77 1843.46
41.97 -171.56 1843.56
42.15 -171.36 1843.65
42.35 -171.19 1843.74
42.57 -171.02 1843.81
42.80 -170.88 1843.87
43.04 -170.76 1843.92
43.30 -170.67 1843.96
43.56 -170.62 1843.97
43.83 -170.61 1843.96
44.11 -170.62 1843.94
44.39 -170.67 1843.90
44.64 -170.73 1843.85
44.88 -170.84 1843.78
45.12 -170.96 1843.71
45.34 -171.11 1843.62
45.54 -171.27 1843.52
45.70 -171.46 1843.41
45.84 -171.67 1843.30
45.94 -171.89 1843.17
46.00 -172.13 1843.05
46.02 -172.37 1842.92
46.01 -172.62 1842.79
45.95 -172.86 1842.67
45.88 -173.09 1842.55
45.79 -173.32 1842.44
45.66 -173.54 1842.33
45.51 -173.75 1842.23
45.32 -173.94 1842.14
45.12 -174.10 1842.07
44.88 -174.23 1842.01
44.64 -174.34 1841.97
44.37 -174.41 1841.95
44.09 -174.45 1841.94
43.80 -174.48 1841.94
43.85 -174.38 1841.81
43.57 -174.38 1841.84
43.30 -174.34 1841.88
43.04 -174.27 1841.93
42.80 -174.18 1841.99
42.56 -174.06 1842.07
42.35 -173.91 1842.16
42.16 -173.73 1842.26
42.01 -173.53 1842.37
41.88 -173.33 1842.48
41.76 -173.12 1842.60
41.64 -172.90 1842.71
41.56 -172.67 1842.83
41.53 -172.43 1842.95
41.59 -172.19 1843.07
41.68 -171.95 1843.18
41.81 -171.73 1843.28
41.97 -171.52 1843.37
42.14 -171.33 1843.45
42.32 -171.14 1843.53
42.53 -170.97 1843.60
42.75 -170.81 1843.66
42.99 -170.69 1843.70
43.25 -170.60 1843.73
43.50 -170.53 1843.75
43.78 -170.50 1843.74
44.05 -170.51 1843.72
44.32 -170.55 1843.68
44.59 -170.61 1843.62
44.84 -170.70 1843.56
45.07 -170.81 1843.49
45.29 -170.95 1843.40
45.48 -171.12 1843.31
45.66 -171.32 1843.20
45.80 -171.51 1843.09
45.91 -171.73 1842.97
45.97 -171.97 1842.85
45.98 -172.22 1842.72
45.98 -172.47 1842.60
45.95 -172.72 1842.48
45.89 -172.95 1842.37
45.80 -173.19 1842.26
45.68 -173.41 1842.16
45.53 -173.63 1842.06
45.34 -173.82 1841.98
45.13 -173.98 1841.92
44.90 -174.12 1841.87
44.65 -174.22 1841.83
44.39 -174.31 1841.81
44.11 -174.36 1841.81
43.81 -174.31 1841.68
43.54 -174.31 1841.70
43.28 -174.27 1841.75
43.02 -174.20 1841.81
42.78 -174.09 1841.88
42.55 -173.96 1841.96
42.34 -173.80 1842.06
42.17 -173.62 1842.16
42.00 -173.42 1842.27
41.87 -173.22 1842.38
41.73 -173.01 1842.48
41.62 -172.80 1842.59
41.55 -172.56 1842.71
41.54 -172.32 1842.83
41.61 -172.08 1842.93
41.71 -171.86 1843.03
41.84 -171.63 1843.12
41.99 -171.41 1843.21
42.15 -171.21 1843.29
42.34 -171.01 1843.36
42.54 -170.85 1843.42
42.77 -170.70 1843.47
43.00 -170.58 1843.50
43.26 -170.50 1843.52
43.53 -170.44 1843.52
43.80 -170.40 1843.51
44.07 -170.40 1843.49
44.34 -170.44 1843.44
44.60 -170.51 1843.39
44.85 -170.59 1843.32
45.08 -170.72 1843.24
45.30 -170.87 1843.15
45.49 -171.04 1843.05
45.64 -171.24 1842.95
45.77 -171.46 1842.83
45.87 -171.69 1842.71
45.93 -171.92 1842.60
45.96 -172.16 1842.48
45.95 -172.41 1842.37
45.90 -172.65 1842.26
45.83 -172.89 1842.15
45.74 -173.12 1842.05
45.61 -173.35 1841.96
45.47 -173.57 1841.87
45.29 -173.75 1841.80
45.09 -173.90 1841.75
44.85 -174.04 1841.71
44.61 -174.14 1841.68
44.34 -174.22 1841.67
44.07 -174.28 1841.67
43.63 -174.25 1841.56
43.37 -174.23 1841.60
43.11 -174.17 1841.65
42.86 -174.09 1841.72
42.64 -173.96 1841.80
42.42 -173.81 1841.89
42.23 -173.64 1841.99
42.06 -173.45 1842.09
41.90 -173.25 1842.20
41.78 -173.04 1842.31
41.67 -172.82 1842.42
41.61 -172.57 1842.53
41.57 -172.33 1842.64
41.59 -172.09 1842.75
41.65 -171.85 1842.85
41.77 -171.61 1842.94
41.90 -171.39 1843.02
42.06 -171.19 1843.09
42.25 -171.00 1843.16
42.45 -170.83 1843.21
42.68 -170.68 1843.25
42.92 -170.55 1843.28
43.16 -170.45 1843.29
43.42 -170.37 1843.30
43.68 -170.31 1843.29
43.95 -170.30 1843.27
44.21 -170.31 1843.24
44.47 -170.37 1843.18
44.73 -170.44 1843.12
44.96 -170.56 1843.04
45.18 -170.71 1842.95
45.37 -170.88 1842.85
45.54 -171.07 1842.75
45.68 -171.28 1842.64
45.80 -171.49 1842.53
45.87 -171.72 1842.42
45.91 -171.97 1842.31
45.91 -172.22 1842.20
45.89 -172.46 1842.09
45.82 -172.71 1841.99
45.74 -172.94 1841.90
45.62 -173.17 1841.81
45.49 -173.38 1841.73
45.33 -173.58 1841.66
45.14 -173.75 1841.60
44.93 -173.90 1841.56
44.69 -174.02 1841.54
44.43 -174.12 1841.52
44.17 -174.19 1841.52
43.90 -174.23 1841.53
43.63 -174.15 1841.38
43.37 -174.14 1841.42
43.11 -174.09 1841.47
42.87 -174.01 1841.53
42.64 -173.89 1841.61
42.42 -173.73 1841.71
42.23 -173.56 1841.80
42.06 -173.38 1841.90
41.91 -173.18 1842.01
41.79 -172.98 1842.11
41.69 -172.75 1842.22
41.63 -172.52 1842.33
41.60 -172.26 1842.45
41.61 -172.02 1842.56
41.66 -171.78 1842.66
41.77 -171.56 1842.74
41.90 -171.34 1842.82
42.06 -171.14 1842.90
42.25 -170.95 1842.96
42.45 -170.78 1843.01
42.66 -170.63 1843.05
42.89 -170.49 1843.09
43.12 -170.39 1843.11
43.38 -170.30 1843.12
43.65 -170.24 1843.11
43.91 -170.22 1843.09
44.18 -170.23 1843.05
44.44 -170.28 1843.00
44.68 -170.36 1842.94
44.92 -170.48 1842.86
45.13 -170.63 1842.77
45.32 -170.80 1842.67
45.49 -170.99 1842.57
45.62 -171.19 1842.46
45.72 -171.41 1842.35
45.80 -171.64 1842.24
45.84 -171.87 1842.14
45.86 -172.12 1842.02
45.84 -172.36 1841.92
45.78 -172.60 1841.82
45.70 -172.83 1841.73
45.59 -173.07 1841.64
45.47 -173.28 1841.56
45.30 -173.47 1841.49
45.11 -173.65 1841.43
44.88 -173.80 1841.39
44.65 -173.92 1841.37
44.40 -174.02 1841.35
44.14 -174.09 1841.35
43.88 -174.14 1841.36
43.53 -174.11 1841.29
43.26 -174.09 1841.34
43.01 -174.03 1841.40
42.77 -173.93 1841.47
42.56 -173.81 1841.55
42.36 -173.65 1841.65
42.19 -173.47 1841.74
42.03 -173.28 1841.84
41.89 -173.07 1841.94
41.79 -172.86 1842.04
41.71 -172.63 1842.15
41.65 -172.38 1842.25
41.63 -172.13 1842.36
41.65 -171.88 1842.45
41.72 -171.64 1842.54
41.81 -171.41 1842.62
41.95 -171.19 1842.68
42.11 -171.00 1842.74
42.30 -170.81 1842.78
42.50 -170.64 1842.82
42.73 -170.50 1842.84
42.96 -170.36 1842.86
43.20 -170.25 1842.87
43.46 -170.17 1842.87
43.71 -170.13 1842.85
43.97 -170.11 1842.81
44.23 -170.13 1842.77
44.49 -170.19 1842.71
44.73 -170.28 1842.63
44.95 -170.41 1842.55
45.15 -170.56 1842.46
45.32 -170.74 1842.36
45.48 -170.94 1842.26
45.61 -171.14 1842.16
45.71 -171.36 1842.06
45.76 -171.60 1841.96
45.79 -171.84 1841.86
45.77 -172.09 1841.76
45.75 -172.34 1841.66
45.69 -172.58 1841.58
45.62 -172.81 1841.49
45.51 -173.04 1841.42
45.37 -173.26 1841.35
45.20 -173.46 1841.30
45.01 -173.63 1841.26
44.78 -173.77 1841.24
44.55 -173.88 1841.23
44.29 -173.97 1841.23
44.03 -174.05 1841.24
43.78 -174.09 1841.26
43.52 -174.04 1841.16
43.26 -174.02 1841.21
43.00 -173.98 1841.27
42.76 -173.90 1841.34
42.54 -173.77 1841.42
42.35 -173.62 1841.51
42.18 -173.43 1841.61
42.02 -173.24 1841.71
41.89 -173.03 1841.81
41.78 -172.81 1841.91
41.70 -172.59 1842.00
41.64 -172.35 1842.10
41.61 -172.11 1842.20
41.62 -171.86 1842.29
41.67 -171.61 1842.37
41.78 -171.38 1842.44
41.93 -171.16 1842.49
42.09 -170.95 1842.54
42.28 -170.76 1842.58
42.48 -170.59 1842.61
42.70 -170.42 1842.64
42.92 -170.29 1842.65
43.16 -170.17 1842.66
43.40 -170.07 1842.65
43.65 -170.02 1842.63
43.91 -170.00 1842.59
44.17 -170.02 1842.54
44.41 -170.09 1842.47
44.65 -170.18 1842.40
44.88 -170.31 1842.31
45.08 -170.46 1842.22
45.26 -170.64 1842.13
45.42 -170.83 1842.03
45.57 -171.03 1841.93
45.68 -171.25 1841.83
45.74 -171.48 1841.73
45.77 -171.72 1841.64
45.77 -171.97 1841.55
45.72 -172.22 1841.46
45.67 -172.47 1841.38
45.58 -172.71 1841.30
45.47 -172.94 1841.24
45.33 -173.16 1841.18
45.18 -173.35 1841.13
44.99 -173.54 1841.10
44.78 -173.69 1841.07
44.54 -173.82 1841.07
44.30 -173.92 1841.07
44.03 -174.00 1841.09
43.77 -174.03 1841.12
43.57 -173.99 1841.00
43.32 -173.97 1841.06
43.06 -173.92 1841.13
42.82 -173.84 1841.20
42.59 -173.72 1841.28
42.39 -173.59 1841.37
42.20 -173.42 1841.46
42.05 -173.24 1841.55
41.92 -173.03 1841.65
41.81 -172.81 1841.74
41.72 -172.58 1841.84
41.64 -172.34 1841.94
41.59 -172.10 1842.03
41.59 -171.87 1842.11
41.65 -171.62 1842.18
41.74 -171.39 1842.25
41.87 -171.16 1842.30
42.02 -170.96 1842.34
42.21 -170.75 1842.38
42.40 -170.56 1842.41
42.60 -170.39 1842.43
42.81 -170.25 1842.44
43.04 -170.13 1842.44
43.28 -170.02 1842.43
43.53 -169.95 1842.41
43.80 -169.92 1842.37
44.06 -169.93 1842.32
44.30 -169.98 1842.25
44.54 -170.08 1842.17
44.76 -170.19 1842.09
44.97 -170.34 1842.00
45.17 -170.49 1841.91
45.35 -170.68 1841.81
45.50 -170.88 1841.72
45.60 -171.10 1841.62
45.67 -171.34 1841.53
45.71 -171.58 1841.44
45.71 -171.83 1841.35
45.69 -172.08 1841.27
45.64 -172.32 1841.19
45.56 -172.58 1841.12
45.47 -172.81 1841.06
45.33 -173.04 1841.00
45.19 -173.24 1840.96
45.00 -173.44 1840.93
44.80 -173.60 1840.91
44.58 -173.75 1840.90
44.34 -173.85 1840.91
44.09 -173.94 1840.93
43.82 -173.99 1840.96
43.63 -173.94 1840.85
43.37 -173.93 1840.91
43.12 -173.89 1840.97
42.88 -173.82 1841.04
42.65 -173.72 1841.12
42.44 -173.60 1841.21
42.25 -173.43 1841.30
42.09 -173.25 1841.39
41.96 -173.04 1841.48
41.85 -172.82 1841.57
41.75 -172.60 1841.67
41.67 -172.37 1841.76
41.61 -172.13 1841.84
41.58 -171.89 1841.93
41.61 -171.64 1842.00
41.68 -171.38 1842.07
41.79 -171.15 1842.12
41.93 -170.94 1842.16
42.11 -170.73 1842.19
42.30 -170.55 1842.21
42.51 -170.38 1842.22
42.72 -170.23 1842.22
42.94 -170.10 1842.22
43.18 -169.99 1842.20
43.42 -169.91 1842.18
43.68 -169.88 1842.14
43.92 -169.87 1842.09
44.18 -169.90 1842.03
44.42 -169.97 1841.96
44.64 -170.08 1841.87
44.85 -170.22 1841.79
45.05 -170.38 1841.69
45.23 -170.55 1841.60
45.39 -170.74 1841.51
45.52 -170.94 1841.42
45.61 -171.17 1841.32
45.64 -171.42 1841.24
45.65 -171.68 1841.16
45.63 -171.93 1841.08
45.59 -172.19 1841.01
45.52 -172.43 1840.94
45.43 -172.66 1840.89
45.32 -172.90 1840.83
45.19 -173.11 1840.79
45.02 -173.31 1840.76
44.83 -173.49 1840.75
44.61 -173.64 1840.74
44.38 -173.76 1840.75
44.13 -173.84 1840.78
43.87 -173.91 1840.81
43.50 -173.89 1840.74
43.24 -173.87 1840.80
43.00 -173.82 1840.87
42.76 -173.74 1840.94
42.55 -173.61 1841.03
42.36 -173.46 1841.12
42.19 -173.28 1841.21
42.03 -173.09 1841.30
41.90 -172.88 1841.39
41.79 -172.66 1841.48
41.70 -172.44 1841.57
41.62 -172.20 1841.65
41.57 -171.97 1841.73
41.57 -171.72 1841.80
41.61 -171.49 1841.86
41.70 -171.25 1841.91
41.83 -171.02 1841.95
41.98 -170.81 1841.98
42.15 -170.60 1842.00
42.35 -170.41 1842.01
42.55 -170.26 1842.01
42.77 -170.10 1842.01
43.00 -169.98 1841.99
43.23 -169.89 1841.97
43.48 -169.83 1841.93
43.73 -169.80 1841.88
43.97 -169.82 1841.82
44.22 -169.86 1841.75
44.45 -169.94 1841.68
44.68 -170.06 1841.59
44.89 -170.20 1841.50
45.08 -170.37 1841.41
45.23 -170.55 1841.32
45.37 -170.75 1841.23
45.48 -170.96 1841.15
45.56 -171.20 1841.06
45.58 -171.45 1840.98
45.57 -171.71 1840.91
45.55 -171.97 1840.84
45.49 -172.22 1840.78
45.43 -172.46 1840.72
45.33 -172.70 1840.67
45.22 -172.93 1840.63
45.07 -173.15 1840.60
44.91 -173.35 1840.58
44.72 -173.51 1840.57
44.49 -173.65 1840.58
44.25 -173.76 1840.60
44.00 -173.83 1840.64
43.74 -173.87 1840.69
43.33 -173.81 1840.58
43.07 -173.78 1840.65
42.83 -173.72 1840.72
42.61 -173.63 1840.80
42.40 -173.49 1840.89
42.23 -173.32 1840.97
42.07 -173.12 1841.07
41.94 -172.92 1841.16
41.83 -172.72 1841.24
41.74 -172.49 1841.33
41.65 -172.27 1841.41
41.58 -172.03 1841.50
41.54 -171.79 1841.58
41.55 -171.55 1841.65
41.60 -171.30 1841.71
41.71 -171.07 1841.75
41.85 -170.86 1841.78
42.02 -170.66 1841.80
42.20 -170.46 1841.82
42.40 -170.29 1841.82
42.62 -170.14 1841.82
