-1.785378 -247.024604 1786.805305
-1.833007 -246.962216 1786.903559
25.285779 -201.145894 1787.174375
25.557616 -201.062921 1787.121174
25.738289 -200.920721 1787.237277
25.852245 -200.967134 1787.122323
25.764651 -201.079803 1787.029375
25.938777 -201.160068 1786.962810
26.329473 -201.095571 1787.182603
26.268799 -201.017410 1787.209053
26.159094 -201.001543 1787.153749
24.309088 -201.361388 1787.218462
24.460793 -201.359604 1787.047269
24.172550 -201.475209 1787.163466
24.415549 -201.493326 1786.964761
24.918040 -201.210096 1787.187392
24.632569 -201.300005 1787.013882
25.046188 -201.193498 1786.943884
25.000785 -201.205885 1787.147100
25.101727 -201.174484 1787.152477
25.128686 -201.175503 1786.958367
25.266717 -201.174252 1787.044364
26.539026 -201.338747 1787.238248
26.539135 -201.251043 1787.178452
26.405733 -201.175239 1787.000847
26.625488 -201.528473 1787.116705
26.603951 -201.532393 1787.132555
26.714433 -201.482502 1787.032701
23.370917 -202.052347 1787.218157
23.694601 -201.937020 1787.103125
23.573004 -201.830980 1787.223719
23.432528 -201.935218 1787.245570
23.691079 -201.699864 1787.231703
23.780305 -201.637869 1787.234811
23.994759 -201.704915 1787.119677
24.134428 -201.663681 1787.039113
26.688015 -201.740692 1787.155680
26.570389 -201.697035 1787.228918
26.609311 -201.702000 1787.204684
26.748800 -202.039867 1787.117848
26.985359 -201.776037 1786.970555
27.004734 -201.687672 1786.958483
23.281372 -202.170201 1787.221767
23.434307 -202.249086 1787.137729
23.591429 -202.387604 1787.050130
23.232163 -202.487491 1787.268586
23.360528 -202.389304 1787.184947
23.573337 -202.542258 1787.064078
26.533535 -202.173855 1787.235391
26.538395 -202.508980 1787.019903
26.638415 -202.383776 1787.031991
26.767191 -202.246704 1787.037172
26.637145 -202.321278 1787.071694
23.620475 -202.798672 1787.125471
23.606580 -202.763310 1787.116832
23.696684 -202.807610 1787.083645
23.806505 -203.041533 1787.127823
23.800392 -202.816542 1787.023962
23.771156 -202.771452 1787.020524
25.707615 -203.057351 1787.221094
25.905227 -203.051548 1787.094291
25.293867 -203.098299 1786.964595
25.562791 -203.090836 1786.984352
25.351185 -203.099433 1787.077226
26.286936 -202.829014 1786.992501
26.467221 -202.665797 1786.977959
26.065815 -202.978953 1787.095975
26.071488 -202.960298 1787.116721
23.876490 -203.268613 1787.220634
23.833904 -203.270916 1787.248678
24.047585 -203.448508 1787.229427
24.450524 -203.445065 1787.189684
24.149842 -203.278595 1787.065731
24.948639 -203.264904 1787.075567
24.973563 -203.257431 1787.073744
24.484146 -203.186709 1787.010902
24.532409 -203.217206 1787.032582
24.718206 -203.142230 1786.980053
24.369637 -203.214847 1787.030501
24.649505 -203.433601 1787.185844
25.324098 -203.216463 1787.203753
25.205944 -203.107320 1787.028002
3.649363 -221.829755 1787.170399
3.696434 -221.832342 1787.165618
3.503066 -221.896192 1787.157364
3.753984 -222.028079 1787.087654
3.766254 -221.823575 1787.163248
3.870869 -222.038906 1787.074135
4.054186 -222.059121 1787.100460
3.963948 -222.267108 1787.002977
3.973136 -222.163030 1787.043939
3.905062 -222.046371 1787.072814
4.322749 -221.866150 1787.231089
2.426304 -222.332265 1787.155542
2.318039 -222.375314 1787.177008
2.685460 -222.368815 1787.034396
3.308967 -221.967020 1787.128714
3.074727 -222.272128 1786.994847
3.296365 -222.001795 1787.113566
2.884446 -221.991223 1787.224865
2.873920 -222.274997 1787.035554
3.030280 -222.029849 1787.142334
3.039863 -222.043820 1787.129121
2.724177 -222.213127 1787.135430
3.449065 -221.972558 1787.125692
3.536483 -222.042182 1787.094549
3.401142 -222.011238 1787.109665
3.388677 -222.186858 1787.034187
4.229550 -222.157338 1787.144200
4.373123 -222.549309 1787.245750
3.977036 -222.391723 1787.000517
4.315494 -222.479454 1787.208296
4.390147 -222.192156 1787.242532
1.709886 -222.792827 1787.168139
1.717674 -222.840775 1787.122217
1.731591 -222.694057 1787.239227
2.042481 -222.825463 1786.964089
2.268095 -222.607026 1787.034610
2.213496 -222.511281 1787.118045
1.995959 -222.819655 1786.970052
1.970157 -222.739429 1787.052550
2.598866 -222.530394 1787.006516
2.510834 -222.758542 1786.961751
3.793970 -222.597769 1786.951651
3.859035 -222.822318 1786.954761
3.865982 -222.770634 1786.953923
4.038511 -222.605765 1787.044370
3.957464 -222.585918 1786.993704
1.394909 -223.281746 1787.042805
1.310104 -223.134898 1787.187105
1.365731 -223.034109 1787.215300
1.320279 -223.133112 1787.181885
1.649677 -222.933115 1787.101717
1.693156 -223.051373 1787.001005
1.513983 -223.248393 1786.989522
4.133106 -223.138641 1787.110062
3.891521 -223.319952 1786.967308
4.257888 -222.898637 1787.186039
4.005928 -222.950978 1787.030129
4.045950 -222.926395 1787.054828
0.964511 -223.483182 1787.034856
0.843824 -223.582709 1787.041252
0.679531 -223.646855 1787.192711
1.234951 -223.369263 1787.056701
3.954651 -223.472052 1787.082374
3.986837 -223.562227 1787.155265
4.210618 -223.413684 1787.202610
3.847013 -223.624704 1787.107157
3.586895 -223.754963 1787.022088
3.756577 -223.742142 1787.120246
3.858768 -223.614591 1787.108502
0.360927 -224.148921 1787.025711
0.453309 -223.886156 1787.176659
0.593457 -223.959917 1786.946902
0.660452 -223.850712 1786.978247
0.464005 -224.035515 1787.018669
3.650679 -224.052542 1787.103167
3.761145 -224.168292 1787.172017
3.659764 -223.952428 1787.108858
3.462306 -224.248840 1786.986041
3.453726 -223.961189 1786.980473
-0.225932 -224.816500 1787.144730
-0.321660 -224.877468 1787.220899
-0.109951 -224.659903 1787.216588
-0.187547 -224.880615 1786.936214
-0.130214 -224.800130 1786.976094
0.265042 -224.324268 1787.005518
3.373502 -224.511689 1787.030846
3.253950 -224.775603 1787.023152
3.523360 -224.354622 1787.053721
3.493754 -224.544359 1787.153521
3.409543 -224.677087 1787.183799
-0.585118 -225.078118 1787.230081
-0.519587 -225.025647 1787.238158
3.246256 -224.895368 1787.136954
3.355871 -224.807355 1787.198335
3.078169 -225.081009 1787.186266
2.877852 -225.284736 1787.223818
2.954562 -225.143141 1787.000551
2.962981 -225.195950 1787.200605
-1.244634 -225.649091 1787.217120
-1.352843 -225.897865 1787.007611
-0.608742 -225.258929 1786.948255
-1.142614 -225.673051 1787.051430
-0.351130 -225.016925 1786.956562
-0.996963 -225.586291 1786.987165
-1.072490 -225.612982 1787.045695
-0.999528 -225.580952 1786.997755
2.401705 -225.657511 1787.042308
2.748283 -225.341760 1787.015628
2.750800 -225.342094 1787.021883
-1.500740 -226.215145 1787.103055
-1.408964 -226.170420 1787.184187
-1.399946 -226.006928 1787.168928
2.276339 -225.803882 1787.037167
2.440006 -225.722134 1787.255302
2.085535 -226.097791 1787.184874
2.077097 -226.109671 1787.133022
-1.825862 -226.597406 1787.158981
-1.810446 -226.567216 1787.119273
-1.705275 -226.508200 1787.223031
-1.609195 -226.386747 1787.187229
1.636304 -226.768367 1787.110073
1.794728 -226.495643 1786.966363
1.906425 -226.313776 1787.203029
1.652115 -226.740491 1787.209068
1.878588 -226.364976 1787.150367
-2.328141 -227.171015 1787.038345
-2.244392 -227.089258 1786.963018
-2.004912 -226.832984 1787.436319
-1.893873 -226.722047 1787.444747
-2.158521 -226.986442 1787.375258
-2.140955 -226.968888 1787.352994
1.581082 -226.819113 1786.990017
1.319580 -227.185477 1786.952207
-2.539058 -227.403547 1787.018780
-2.390323 -227.250158 1786.949331
-2.501353 -227.338862 1787.126664
-2.552343 -227.387374 1787.156901
0.827833 -227.648978 1786.981648
0.844407 -227.626762 1786.952855
0.837441 -227.663625 1787.073646
0.760756 -227.756025 1787.165833
1.194664 -227.349170 1787.192749
1.060215 -227.478637 1787.143424
1.086753 -227.457718 1787.193762
-3.243429 -228.063784 1787.238872
-3.072959 -227.933437 1787.173596
-3.325867 -228.125049 1787.272329
-3.219095 -228.067274 1787.177393
0.463232 -228.108052 1787.192568
0.691012 -227.888979 1787.249707
-3.569029 -228.601959 1787.034731
-3.769565 -228.797992 1787.203521
-3.788377 -228.829659 1787.195105
-3.270422 -228.176507 1787.039974
-3.363536 -228.331519 1786.997521
0.404689 -228.160827 1787.164186
0.356939 -228.346965 1787.233252
0.212669 -228.619754 1787.219460
0.218041 -228.366998 1787.040598
-3.763955 -229.306244 1786.978791
-3.712044 -228.904605 1787.045064
-3.821072 -229.402365 1787.015586
-3.786530 -228.941710 1787.121046
-4.170241 -229.491598 1787.217373
-3.934437 -229.203369 1787.175315
-4.241455 -229.572011 1787.232509
-3.935720 -229.443766 1787.087894
-0.458645 -229.156803 1786.972354
-0.517814 -229.357751 1787.098333
-0.368165 -229.303166 1787.210733
-0.461309 -229.215811 1787.032552
-4.377364 -229.819120 1787.211777
-4.352136 -229.746149 1787.230567
-3.967674 -229.675533 1786.996870
-3.865347 -229.587541 1786.985718
-3.899583 -229.581987 1787.012249
-0.932272 -229.891602 1787.087422
-0.718407 -229.637853 1787.088370
-1.098791 -230.056948 1787.033621
-0.994723 -229.933770 1787.034570
-0.570908 -229.571383 1787.264007
-0.830119 -229.839513 1787.183673
-4.682734 -230.433643 1787.114543
-4.649943 -230.286087 1787.232954
-4.512462 -230.226373 1787.062330
-4.578505 -230.292308 1787.075128
-1.375558 -230.357874 1786.991909
-1.647738 -230.473136 1786.974183
-1.256743 -230.278593 1787.057807
-1.363901 -230.366301 1787.018837
-4.797080 -230.860751 1787.081904
-4.940363 -231.055988 1787.075878
-4.921956 -230.842451 1787.193799
-4.760765 -230.771575 1787.042521
-4.759696 -230.801481 1787.019875
-1.953693 -230.900027 1787.118157
-1.793660 -230.665367 1787.071828
-1.522981 -230.614220 1787.207907
-1.982585 -230.900298 1787.100414
-2.351966 -231.140708 1787.020529
-1.968703 -230.894725 1787.105563
-4.923498 -231.155940 1787.013669
-5.132837 -231.495678 1787.107540
-4.863905 -231.440737 1786.986370
-5.286999 -231.513811 1787.177020
-5.215826 -231.326661 1787.161568
-2.459746 -231.427529 1787.134502
-1.717356 -230.801259 1787.203919
-2.660533 -231.442485 1787.017130
-2.624933 -231.453055 1787.046382
-2.213550 -231.345023 1787.237449
-2.829226 -231.872102 1787.184798
-2.221680 -231.328357 1787.221668
-2.095145 -231.094756 1787.152504
-2.420596 -231.458195 1787.178829
-5.161861 -231.911493 1787.118115
-5.375269 -231.973213 1787.192099
-4.938694 -231.795125 1787.033482
-5.033753 -231.877492 1787.074131
-5.034930 -231.558955 1787.061773
-5.443916 -231.888285 1787.222676
-5.254207 -231.594978 1787.158078
-5.464965 -231.635791 1787.250199
-4.536159 -231.983772 1786.977896
-4.331664 -232.016526 1786.953651
-2.882355 -231.653655 1787.001477
-2.857292 -231.627520 1787.009152
-2.899213 -231.874390 1787.120865
-5.232867 -232.148178 1787.175950
-5.008604 -232.066680 1787.093961
-5.088634 -232.253324 1787.149556
-5.451309 -232.093289 1787.233366
-4.993464 -232.379019 1787.141573
-5.425761 -232.152765 1787.236078
-4.551102 -232.249463 1786.983871
-4.465516 -232.296639 1786.971542
-4.547486 -232.265726 1786.984526
-4.741233 -232.141253 1787.024516
-4.632260 -232.250760 1787.008626
-4.250629 -232.398089 1786.956424
-4.292677 -232.307869 1786.950402
-3.302889 -232.282073 1787.023892
-3.672107 -232.403467 1787.016142
-3.411126 -232.246247 1786.978542
-2.925043 -232.070755 1787.218294
-3.178829 -232.226523 1787.074900
-3.230861 -232.216596 1787.018955
-5.600529 -232.699002 1787.267917
-5.288068 -232.510664 1787.252168
-5.394371 -232.977418 1787.136349
-5.745913 -232.908277 1787.244008
-5.354795 -232.764759 1787.191481
-5.101947 -232.931091 1787.065552
-5.239317 -232.635817 1787.200208
-5.167247 -232.789182 1787.130035
-5.056967 -232.691700 1787.124231
-4.966759 -232.537720 1787.144095
-4.375274 -232.725878 1787.111253
-4.458222 -232.691735 1787.115865
-4.434275 -232.801883 1787.177960
-4.547555 -232.875288 1787.130930
-4.747583 -232.949523 1786.982092
-4.584641 -232.938053 1787.087942
-4.198217 -232.867460 1787.160453
-4.242888 -232.768251 1787.105235
-4.286343 -232.731717 1787.089452
-3.824620 -232.843307 1787.129508
-3.844997 -232.753879 1787.100217
-3.786281 -232.702418 1787.099847
-3.608770 -232.646469 1787.134937
-3.794490 -232.576979 1787.061430
-3.435126 -232.684219 1787.195841
-3.568908 -232.886005 1787.211471
-3.661913 -233.047000 1787.226718
-5.624652 -233.401244 1787.233929
-5.588128 -233.402023 1787.233877
-5.725656 -233.220217 1787.230649
-5.772810 -233.242535 1787.243616
-5.781159 -233.027876 1787.233302
-4.984116 -233.032191 1787.026179
-5.119102 -233.131048 1787.100286
-4.441913 -233.254470 1787.164140
-4.477928 -233.101841 1787.140923
-4.599693 -233.164339 1787.064193
-3.849082 -233.299571 1787.246872
-4.062976 -233.026368 1787.220277
-5.025540 -233.584295 1787.212543
-5.121846 -233.566277 1787.236999
-4.988843 -233.497407 1787.173449
-4.847460 -233.723790 1787.201042
-5.010590 -233.254007 1787.102964
-4.625077 -233.510001 1787.165158
-4.767606 -233.855039 1787.230338
-4.543480 -233.693801 1787.249429
-4.613176 -233.335649 1787.113310
-4.504257 -233.436630 1787.179770
-2.994653 -243.631692 1787.404723
-2.864180 -243.614309 1787.251008
-2.864545 -243.610227 1787.210535
-2.954938 -243.618499 1787.296629
-4.395909 -243.938304 1786.989354
-4.330212 -244.017093 1787.149807
-4.118152 -243.862597 1787.222100
-4.179502 -243.899214 1787.183893
-4.092952 -243.764414 1787.030837
-3.941300 -243.758070 1786.953121
-3.605622 -243.678442 1787.082241
-3.385196 -243.625623 1787.158464
-3.366061 -243.601856 1787.034780
-2.781201 -243.615832 1787.222172
-2.663489 -243.612157 1787.107509
-2.748327 -243.615846 1787.200638
-2.391819 -243.818162 1787.116648
-2.427196 -243.781974 1787.116558
-2.457089 -243.942234 1786.982882
-2.169432 -243.705541 1787.147377
-2.364386 -243.797582 1787.137717
-2.224532 -243.850434 1787.048883
-2.332310 -243.678878 1787.208996
-1.703435 -243.847696 1787.089722
-1.847079 -243.732144 1787.166347
-6.471107 -244.553846 1787.190765
-5.930177 -244.260493 1787.211283
-6.077828 -244.435842 1787.161856
-6.114630 -244.577488 1787.080997
-6.050696 -244.444051 1787.149408
-6.118084 -244.585875 1787.076468
-5.465093 -244.196461 1787.142532
-5.463795 -244.181431 1787.152368
-5.499637 -244.123341 1787.196684
-5.562692 -244.410997 1786.988899
-5.348621 -244.148750 1787.147626
-5.250226 -244.321478 1786.889358
-5.129725 -244.194408 1786.985471
-4.716623 -244.071841 1787.133779
-4.996604 -244.070307 1787.187068
-5.108674 -244.069970 1787.148962
-1.583964 -243.929799 1787.127736
-1.602576 -243.912204 1787.244513
-0.691124 -244.547316 1787.087304
-0.300732 -244.848829 1787.024852
-0.901764 -244.393808 1787.126094
-6.532200 -244.657909 1787.199114
-6.645010 -244.926050 1787.231032
-6.517705 -244.689397 1787.194906
-5.929677 -244.678490 1787.011089
-6.092147 -244.647872 1787.065416
-6.261775 -244.626142 1787.119969
-6.298515 -244.647654 1787.132077
-6.411936 -245.022077 1787.130264
-6.377116 -244.977799 1787.121828
-6.572505 -245.120241 1787.182655
-6.673880 -245.125597 1787.232609
-6.241439 -245.438748 1787.009372
-6.647157 -245.226947 1787.221239
-6.552134 -245.296084 1787.172195
-6.304799 -245.469254 1787.044340
-6.181749 -244.915670 1787.056864
-5.987440 -244.929594 1787.014630
-5.978876 -244.841784 1787.026141
-6.076988 -244.924513 1787.033891
-5.959186 -244.961848 1787.003917
-6.205464 -245.549346 1787.008371
-6.394197 -245.655145 1787.165577
-6.371385 -245.574847 1787.112245
-6.621164 -245.722022 1787.323938
-6.435978 -245.639083 1787.180301
-7.017142 -245.516700 1787.436479
-5.863938 -246.299566 1787.210827
-5.667910 -246.423774 1787.166457
-5.890758 -246.245779 1787.193906
-1.282509 -246.426311 1787.177883
-1.280131 -246.621072 1787.050256
-0.694949 -246.094548 1787.037383
-0.737435 -246.125902 1787.042771
-1.144851 -246.283722 1787.186990
-1.009980 -246.525961 1786.948447
-0.483058 -246.025895 1786.953678
-0.804979 -246.117551 1787.089044
-5.555271 -246.548002 1787.175965
-5.566163 -246.480490 1787.138725
-5.352139 -246.767365 1787.192604
-5.221437 -246.629922 1787.033002
-5.089994 -246.797586 1787.090959
-5.190905 -246.685958 1787.057692
-5.201024 -246.898034 1787.201032
-5.186476 -246.944905 1787.240342
-4.642110 -246.875510 1787.091312
-4.628033 -246.918944 1787.151706
-3.682328 -246.960135 1787.366943
-3.456811 -246.957943 1787.296609
-3.643615 -246.955932 1787.244743
-3.528230 -246.950495 1787.028821
-3.887251 -246.938082 1787.174572
-3.079042 -246.957242 1787.234752
-3.064924 -246.957264 1787.236244
-2.243225 -246.955256 1787.128533
-2.179783 -246.830903 1787.237195
-1.968116 -246.942616 1787.006300
-1.966786 -246.978580 1786.961101
-1.815902 -246.830904 1787.091065
-1.568409 -246.841175 1787.044397
-1.520939 -246.513203 1787.231543
-1.530411 -246.773478 1787.073290
-1.407010 -246.506324 1787.192358
-1.699501 -246.661929 1787.207170
-3.162201 -247.037939 1786.952194
-2.867737 -247.105969 1787.046091
-2.715493 -246.954076 1787.229793
-2.420915 -246.959253 1787.183617
-2.786626 -247.040408 1787.135409
-2.712011 -247.127573 1787.019110
25.518489 -201.053579 1787.327257
25.387955 -201.091802 1787.303243
25.632883 -201.087053 1787.394871
25.878099 -200.968517 1787.298230
25.961666 -201.107603 1787.379578
26.100013 -201.088678 1787.371032
26.208603 -201.047602 1787.310342
24.074766 -201.240254 1787.538265
24.120878 -201.438532 1787.233426
23.724223 -201.463960 1787.472120
24.012044 -201.469778 1787.268719
23.758088 -201.483591 1787.424599
24.283833 -201.201460 1787.539816
24.397384 -201.248514 1787.465844
24.333930 -201.338739 1787.291334
24.756129 -201.187884 1787.436402
25.071130 -201.190083 1787.417268
25.545060 -201.180542 1787.515654
25.105831 -201.178606 1787.291036
25.987087 -201.367487 1787.489628
25.888650 -201.375266 1787.510278
26.054909 -201.536085 1787.519090
26.182796 -201.260629 1787.403216
26.295669 -201.362344 1787.386531
23.323026 -201.847743 1787.442155
23.039127 -202.083238 1787.480934
23.336986 -201.847062 1787.429766
23.014661 -202.060432 1787.525727
23.622983 -201.697191 1787.278074
23.414043 -201.935197 1787.259262
26.159791 -201.566202 1787.484122
26.417994 -201.555206 1787.323326
26.504691 -201.216686 1787.269054
26.370155 -201.393562 1787.352980
25.992241 -201.801269 1787.588655
26.105113 -201.871153 1787.518427
26.421415 -202.095536 1787.321650
26.398432 -201.877977 1787.335779
26.335076 -201.872350 1787.375227
26.444557 -201.497257 1787.306736
25.850182 -202.144955 1787.677407
23.100183 -202.293803 1787.389139
23.198463 -202.421354 1787.288700
22.986723 -202.474808 1787.459343
22.837694 -202.503946 1787.550269
22.953310 -202.239140 1787.522535
26.085656 -202.163569 1787.525607
25.933234 -202.345835 1787.568868
26.104111 -202.198810 1787.503818
26.146686 -202.401915 1787.418377
26.475454 -202.250109 1787.255370
22.980766 -202.969193 1787.542920
23.122292 -203.046398 1787.473841
22.977345 -202.826754 1787.502057
22.827843 -202.988364 1787.606737
22.762108 -202.978133 1787.630224
22.869463 -202.916806 1787.578140
23.247335 -203.157376 1787.450072
23.300792 -202.763692 1787.298193
23.421369 -202.927323 1787.297692
25.726144 -203.022214 1787.296654
25.588604 -203.079122 1787.306381
26.113429 -202.754371 1787.312115
23.510563 -203.170791 1787.345734
23.313403 -203.338880 1787.518851
23.650529 -203.421661 1787.453387
23.253635 -203.248035 1787.483021
23.875390 -203.572874 1787.414257
23.825195 -203.435256 1787.356342
23.783954 -203.360792 1787.334915
23.716902 -203.419270 1787.411916
24.456378 -203.539643 1787.265856
24.549337 -203.562624 1787.402977
24.560807 -203.603081 1787.533952
24.370108 -203.582708 1787.403694
25.037957 -203.459600 1787.455059
24.715426 -203.543684 1787.435824
24.732846 -203.514148 1787.324061
25.414967 -203.192807 1787.299116
25.509937 -203.084205 1787.508548
25.127773 -203.405049 1787.374542
4.303700 -220.768772 1787.482086
4.072645 -220.987916 1787.485536
4.254225 -221.074287 1787.412338
4.348670 -220.655977 1787.503599
4.359168 -220.785275 1787.473444
4.420904 -220.578020 1787.518902
3.588546 -221.430125 1787.466749
3.717398 -221.155964 1787.534052
3.641553 -221.307180 1787.499549
3.988862 -221.188370 1787.405949
4.059748 -221.210784 1787.382794
4.708662 -221.189920 1787.432066
4.620826 -221.017895 1787.443798
4.768704 -220.960873 1787.462389
4.477074 -221.210322 1787.410573
4.457613 -220.966158 1787.435964
4.895799 -221.224638 1787.444898
5.142062 -221.090240 1787.486058
4.899277 -221.015009 1787.468611
5.135585 -221.242944 1787.468365
5.432432 -221.241391 1787.513816
5.358717 -221.221719 1787.503839
5.073923 -220.934863 1787.497237
5.169568 -220.882374 1787.522002
3.118972 -221.701430 1787.449797
3.018013 -221.715101 1787.519752
3.225473 -221.737259 1787.304705
3.300054 -221.691401 1787.303763
3.665676 -221.519201 1787.310507
3.424868 -221.496241 1787.471396
4.300201 -221.336567 1787.355938
4.239551 -221.172789 1787.387166
4.192493 -221.476677 1787.315561
4.803540 -221.645269 1787.447848
4.757912 -221.592340 1787.402016
4.748836 -221.637074 1787.408021
4.587819 -221.333198 1787.399129
4.464811 -221.750386 1787.282984
4.523913 -221.745998 1787.292755
4.679514 -221.539319 1787.364293
5.240494 -221.669915 1787.513096
5.266755 -221.756155 1787.527781
5.208528 -221.700733 1787.518164
4.954359 -221.726325 1787.514368
4.890429 -221.615379 1787.477463
5.461201 -221.545520 1787.518263
5.394109 -221.430075 1787.485008
2.024071 -222.452860 1787.310202
2.086297 -222.425251 1787.274567
2.230720 -222.230324 1787.524204
2.439130 -222.128177 1787.426358
2.817661 -221.963943 1787.307439
2.999155 -221.895709 1787.246288
3.108143 -221.824581 1787.267758
4.428908 -222.268260 1787.262295
4.470085 -222.691940 1787.291174
4.403085 -222.763877 1787.267585
4.699853 -222.520311 1787.374375
4.473974 -222.231558 1787.278520
4.838256 -222.157708 1787.474504
4.851809 -221.954958 1787.535337
4.847990 -222.237470 1787.461165
4.888516 -222.080234 1787.518031
5.043303 -222.176204 1787.553884
1.548782 -222.824037 1787.322722
1.586145 -222.809666 1787.431704
1.473015 -222.878794 1787.556177
1.675503 -222.737937 1787.401651
4.791526 -222.801979 1787.498583
4.682600 -222.562282 1787.371395
4.749530 -222.608509 1787.423933
4.954910 -222.638925 1787.535480
5.001694 -222.596484 1787.543508
1.262025 -223.080629 1787.503640
1.044939 -223.301427 1787.258974
4.466083 -223.266516 1787.350941
4.564863 -223.332793 1787.445802
4.597989 -223.170046 1787.464278
4.641227 -223.123100 1787.480184
4.634974 -223.087931 1787.468529
0.891300 -223.424563 1787.332848
1.071189 -223.257751 1787.416717
0.696809 -223.609200 1787.395800
0.922647 -223.413469 1787.505205
0.694774 -223.622741 1787.426230
4.460195 -223.642228 1787.538827
4.528622 -223.357584 1787.421019
4.365142 -223.422397 1787.307722
4.178460 -223.570966 1787.278196
4.224505 -223.817633 1787.464696
0.422986 -223.926628 1787.324271
0.421368 -223.928211 1787.321955
0.396502 -224.060672 1787.397960
0.250733 -224.296234 1787.289599
4.060842 -224.185560 1787.455699
4.054449 -224.150426 1787.448003
4.131807 -224.014365 1787.462260
4.106904 -224.151224 1787.484393
4.077361 -223.931768 1787.403838
0.150321 -224.389034 1787.332275
0.074809 -224.451474 1787.255163
0.360505 -224.323052 1787.421420
0.218803 -224.394345 1787.420677
3.519123 -224.741787 1787.454006
3.436456 -224.773629 1787.468328
3.723168 -224.559618 1787.340959
3.558113 -224.685221 1787.301300
3.940466 -224.490920 1787.499503
-0.520078 -225.040561 1787.326694
-0.685173 -225.178865 1787.375354
-0.520608 -225.042359 1787.331683
-0.422257 -224.976668 1787.409441
-0.096205 -224.670729 1787.479324
3.346251 -224.843351 1787.323317
3.378350 -224.812306 1787.355401
3.273087 -224.914123 1787.262578
2.778490 -225.392962 1787.348444
3.093273 -225.097009 1787.524775
3.049605 -225.136543 1787.490860
-1.098434 -225.496365 1787.268195
-1.229257 -225.660240 1787.368675
-0.883041 -225.306720 1787.293746
-0.980088 -225.460070 1787.444236
-0.694294 -225.247606 1787.557919
-1.411333 -226.090476 1787.360385
-1.406747 -225.965596 1787.501868
-1.393645 -225.893951 1787.424990
2.560790 -225.631537 1787.487581
2.037129 -226.152393 1787.561292
2.066102 -226.122566 1787.458080
1.954400 -226.231691 1787.279460
2.264585 -225.927889 1787.699687
2.782706 -225.412211 1787.594036
2.258695 -225.932754 1787.602814
2.711565 -225.482227 1787.530841
2.445443 -225.743062 1787.391861
2.479339 -225.686585 1787.298275
-1.706213 -226.447013 1787.388835
-1.863890 -226.679892 1787.390001
-1.731060 -226.555362 1787.254535
-1.876807 -226.700436 1787.256037
-1.436047 -226.109218 1787.468942
1.942731 -226.250288 1787.495748
1.864619 -226.358874 1787.413267
1.900757 -226.309430 1787.508923
1.520489 -226.930971 1787.342689
1.589755 -226.835413 1787.271919
1.741944 -226.533884 1787.423298
1.673255 -226.642453 1787.447207
-1.990713 -226.819216 1787.524890
-2.169074 -226.999183 1787.591001
-2.348051 -227.178356 1787.518192
-2.340810 -227.173607 1787.766905
1.230558 -227.188146 1787.483565
1.405615 -227.137271 1787.266480
1.295846 -227.184648 1787.379555
-2.453929 -227.255224 1787.648357
-2.616849 -227.356319 1787.482690
-2.613921 -227.356223 1787.704884
-2.667281 -227.389319 1787.648797
-2.592762 -227.378221 1787.319078
-2.762627 -227.528017 1787.352438
-2.662612 -227.436130 1787.338945
1.225269 -227.264057 1787.376733
1.319160 -227.218760 1787.278618
-3.272446 -228.044937 1787.549589
-3.327293 -228.120032 1787.365971
-3.162450 -227.877892 1787.678558
-3.030581 -227.660131 1787.578537
-2.967268 -227.666547 1787.460930
-3.137870 -227.862537 1787.410381
-2.978144 -227.669394 1787.474027
0.859689 -227.663299 1787.329055
0.828144 -227.659187 1787.419122
0.617223 -227.904199 1787.502578
0.685302 -227.776995 1787.677403
0.667198 -227.792713 1787.715366
0.253692 -228.572011 1787.409191
0.290422 -228.499933 1787.378932
-3.966978 -228.979358 1787.452520
-3.907724 -228.939661 1787.334830
-3.667867 -228.572407 1787.383348
0.111377 -228.785276 1787.352638
0.127841 -228.771198 1787.272417
0.054901 -228.833896 1787.547362
-4.023031 -229.166025 1787.321599
-4.068105 -229.238155 1787.360402
-4.139968 -229.260116 1787.521841
-4.076998 -229.189961 1787.443112
-0.370780 -229.349428 1787.302861
-0.176305 -229.141422 1787.242101
-0.072858 -228.996891 1787.652777
-0.340837 -229.316101 1787.525142
-0.226088 -229.182312 1787.625662
-4.427526 -230.006452 1787.351198
-4.382605 -229.866026 1787.310861
-4.300227 -229.691984 1787.503357
-4.300313 -229.991985 1787.521356
-0.880508 -229.987951 1787.266024
-0.760529 -229.846158 1787.395892
-4.762783 -230.530003 1787.430844
-4.475813 -230.116346 1787.379860
-4.631456 -230.334706 1787.451060
-4.541169 -230.198558 1787.399094
-1.062440 -230.395862 1787.546635
-1.226473 -230.636783 1787.519398
-1.123777 -230.359382 1787.347822
-1.213794 -230.377692 1787.267874
-1.284791 -230.603245 1787.424732
-1.214822 -230.383275 1787.272560
-5.244332 -231.135581 1787.324723
-5.261174 -231.186383 1787.263356
-5.098012 -230.888994 1787.514530
-4.908954 -230.700489 1787.420665
-5.281294 -231.396249 1787.397588
-5.265200 -231.194344 1787.391149
-5.264657 -231.338568 1787.545825
-1.629745 -230.871254 1787.338622
-2.382814 -231.536497 1787.257357
-1.586041 -230.857259 1787.368719
-1.821418 -230.993396 1787.269287
-2.030154 -231.299751 1787.372533
-1.877971 -231.053695 1787.273850
-2.250457 -231.438585 1787.291242
-5.553124 -231.716614 1787.352866
-5.648965 -231.918228 1787.438405
-5.413030 -231.544127 1787.318049
-5.728501 -231.994331 1787.536545
-2.503185 -231.831361 1787.490944
-1.707459 -231.123221 1787.530255
-1.997877 -231.373728 1787.504248
-2.631329 -231.848604 1787.342557
-2.298079 -231.651782 1787.505407
-5.853943 -232.327209 1787.475034
-5.793713 -232.458688 1787.392251
-5.989088 -232.436244 1787.495591
-5.675098 -232.164270 1787.397885
-5.372942 -232.477755 1787.269610
-5.460130 -232.271608 1787.263116
-3.067646 -232.344935 1787.273199
-3.070379 -232.371666 1787.296457
-2.886003 -232.130636 1787.326534
-2.897372 -232.362816 1787.533898
-2.666000 -232.070034 1787.542618
-2.869644 -232.267120 1787.477860
-6.117920 -232.915914 1787.455965
-6.128845 -232.584462 1787.517059
-6.063425 -232.568336 1787.483665
-6.038044 -232.673271 1787.438126
-6.005991 -232.628092 1787.437059
-3.525571 -232.969638 1787.283453
-3.576285 -233.060100 1787.312612
-3.250950 -232.665166 1787.328985
-3.117488 -232.923538 1787.796983
-3.298765 -232.837535 1787.452025
-3.206850 -232.888692 1787.635218
-3.068287 -232.623627 1787.559210
-3.139355 -232.705995 1787.537632
-3.165725 -232.721567 1787.514060
-6.029007 -233.343082 1787.419048
-6.207442 -233.086517 1787.519212
-6.174550 -233.089301 1787.498788
-5.919248 -233.026781 1787.309094
-6.113718 -233.022277 1787.448133
-3.882298 -233.335274 1787.251021
-4.130791 -233.354023 1787.251209
-3.852461 -233.350414 1787.286504
-3.949042 -233.415826 1787.367353
-3.473186 -233.151877 1787.570752
-3.806254 -233.396375 1787.445633
-3.379706 -233.126580 1787.696421
-5.963321 -233.638191 1787.435463
-5.897818 -233.732290 1787.424455
-5.868375 -233.651934 1787.382160
-5.361388 -233.613986 1787.288130
-4.993130 -233.920165 1787.279474
-5.297922 -233.789895 1787.305994
-5.446391 -233.780424 1787.327397
-5.470940 -233.605744 1787.294790
-5.679738 -233.745806 1787.338902
-5.586915 -233.532809 1787.273595
-4.510039 -233.842581 1787.360830
-4.742394 -233.922695 1787.268333
-4.389286 -233.668025 1787.326153
-4.200362 -233.583261 1787.390185
-4.113073 -233.750493 1787.548657
-4.155890 -233.720016 1787.503022
-5.925867 -234.021673 1787.475000
-6.056815 -233.658433 1787.493048
-6.163344 -234.001044 1787.530671
-5.917990 -234.381233 1787.480291
-5.983611 -234.004567 1787.490874
-5.819061 -234.326163 1787.457786
-5.910579 -234.417343 1787.479028
-5.351719 -234.288431 1787.383759
-5.148694 -234.134523 1787.326850
-5.692372 -234.388282 1787.431024
-5.054077 -234.053701 1787.302280
-5.428930 -234.090545 1787.363576
-5.593521 -234.251519 1787.403471
-5.088809 -234.059063 1787.308134
-4.812723 -234.256415 1787.438895
-5.157395 -234.427527 1787.453831
-5.046000 -234.279172 1787.391903
-4.680099 -234.086287 1787.406979
-4.490518 -234.042142 1787.496102
-4.623296 -234.245581 1787.539460
-6.069943 -234.556747 1787.542801
-6.012649 -234.622154 1787.544549
-5.461190 -234.686905 1787.492301
-5.686072 -234.870261 1787.539648
-5.273710 -234.880553 1787.542285
-5.435202 -234.530024 1787.454212
-5.648328 -234.774995 1787.516203
-5.102968 -234.719967 1787.543502
-5.243206 -234.469419 1787.442600
-5.109846 -234.494042 1787.483400
-5.166342 -243.886715 1787.437889
-5.591304 -243.837939 1787.539256
-5.226373 -243.981440 1787.314238
-5.478546 -243.983491 1787.334016
-4.241718 -243.942773 1787.312911
-4.141323 -243.893825 1787.261367
-4.141886 -243.808018 1787.344108
-3.560575 -243.637830 1787.271025
-3.660300 -243.715767 1787.329471
-3.143011 -243.847563 1787.503733
-3.123878 -243.839215 1787.508434
-3.257554 -243.830243 1787.430546
-2.538432 -243.640930 1787.460056
-2.453837 -243.642711 1787.362109
-2.169457 -243.649266 1787.386625
-6.850245 -244.409437 1787.511927
-6.778607 -244.413734 1787.442553
-6.272492 -244.124989 1787.484104
-6.480161 -244.218229 1787.446721
-6.373772 -244.330838 1787.256408
-6.671418 -244.426993 1787.344558
-6.056447 -244.083450 1787.387110
-6.192836 -244.144657 1787.394497
-5.997295 -244.062394 1787.381512
-6.028706 -244.156498 1787.286031
-5.206389 -244.018691 1787.265725
-5.168638 -243.969075 1787.327421
-4.795933 -243.957161 1787.361961
-4.885534 -243.984533 1787.324194
-4.580480 -243.934259 1787.390951
-4.586985 -243.940799 1787.384859
-4.733332 -243.840189 1787.485939
-1.831667 -243.913785 1787.400443
-1.981905 -244.041967 1787.570017
-1.510044 -244.666943 1787.676272
-1.880893 -243.877880 1787.407571
-1.609480 -244.606610 1787.698252
-1.992243 -244.143682 1787.639440
-1.746431 -244.159572 1787.502257
-1.686411 -244.457898 1787.651822
-1.711669 -244.300954 1787.569359
-1.510030 -244.646122 1787.663320
-2.096516 -243.938589 1787.574315
-1.878825 -244.167564 1787.586433
-1.666529 -243.950675 1787.323352
-1.906021 -243.745868 1787.321998
-1.909503 -243.705511 1787.291973
-1.027333 -244.472959 1787.252528
-1.203864 -244.999759 1787.692007
-1.058992 -244.584904 1787.342199
-1.013260 -244.590172 1787.316423
-0.440009 -244.915642 1787.154531
-1.343818 -244.799200 1787.656283
-0.289097 -244.998254 1787.110004
-0.817111 -244.651699 1787.230059
-0.583872 -244.883982 1787.226240
-0.363234 -245.012107 1787.165704
-1.264285 -244.399617 1787.357468
-1.137619 -244.981476 1787.638567
-0.872656 -244.903256 1787.421655
-1.267226 -244.371871 1787.342095
-1.051527 -244.482501 1787.273825
-0.553074 -244.774166 1787.138439
-0.849076 -244.697355 1787.278734
-6.752217 -244.675326 1787.287339
-6.974301 -244.659437 1787.481818
-6.794756 -244.604156 1787.324860
-7.376881 -244.845475 1787.699077
-7.332766 -245.035048 1787.629474
-7.031828 -244.761690 1787.506892
-7.141230 -244.818160 1787.561102
-7.509765 -244.985318 1787.748903
-6.835645 -245.039200 1787.325493
-7.005865 -245.108117 1787.426955
-7.359754 -245.298462 1787.636411
-7.049873 -245.242205 1787.449515
-7.217445 -245.048050 1787.557674
-0.976212 -245.496815 1787.576862
-0.649625 -245.393484 1787.363081
-0.276828 -245.415706 1787.118746
-0.327960 -245.194872 1787.152734
-0.095501 -245.280714 1787.000221
-0.595896 -245.351945 1787.327964
-0.832454 -245.432666 1787.482800
-0.205224 -245.340959 1787.071989
-6.450284 -246.003093 1787.391006
-6.422747 -245.939727 1787.332858
-6.808875 -245.677567 1787.405201
-1.013284 -246.014964 1787.282008
-1.238743 -245.675751 1787.640130
-1.272628 -245.639047 1787.684629
-0.737567 -246.038299 1787.099729
-1.248572 -246.103306 1787.366861
-1.117601 -245.850371 1787.452698
-0.890362 -245.953681 1787.247560
-0.902554 -245.798273 1787.356438
-0.302830 -245.698419 1787.026640
-0.377982 -245.880612 1786.971203
-0.315364 -245.624356 1787.077223
-0.901107 -245.739490 1787.392587
-0.735275 -245.638818 1787.342298
-0.896963 -245.555429 1787.495320
-0.822672 -245.662881 1787.385409
-0.501067 -245.894611 1787.043312
-0.521376 -245.920176 1787.041889
-6.361345 -246.145557 1787.380512
-6.306176 -246.353450 1787.408479
-6.278158 -246.129392 1787.324915
-6.489277 -246.356107 1787.480392
-6.480862 -246.382846 1787.477779
-6.127984 -246.279371 1787.304198
-6.113682 -246.218050 1787.280085
-5.943004 -246.383001 1787.280183
-1.797025 -246.415803 1787.436400
-1.443541 -246.204516 1787.407370
-1.716027 -246.178790 1787.582447
-1.563054 -246.338202 1787.366784
-1.699848 -246.053262 1787.674923
-6.580330 -246.540627 1787.528055
-6.289208 -246.506614 1787.426878
-6.488220 -246.628303 1787.526669
-5.793177 -246.886588 1787.503327
-6.033189 -246.777772 1787.438000
-6.063521 -246.682600 1787.411650
-6.016355 -246.498592 1787.339793
-6.104618 -246.596863 1787.397703
-5.677900 -246.723539 1787.365299
-5.697457 -246.590319 1787.291531
-5.718755 -246.822365 1787.454000
-5.727448 -246.953732 1787.710409
-4.439745 -246.960587 1787.508909
-4.350286 -246.961506 1787.463654
-4.590810 -246.961150 1787.460271
-5.294783 -246.962403 1787.314647
-5.509408 -246.954968 1787.732611
-4.510874 -246.961816 1787.428985
-5.459362 -246.958503 1787.528633
-4.418502 -246.959283 1787.588203
-4.547527 -246.961211 1787.461095
-4.469813 -246.941403 1787.232611
-4.242952 -246.939372 1787.256024
-4.306373 -246.938224 1787.234566
-4.337835 -246.958727 1787.407140
-3.974029 -246.946474 1787.366469
-4.413688 -246.960232 1787.406493
-3.047417 -246.939582 1787.504102
-2.390899 -246.709948 1787.513331
-2.685039 -246.882479 1787.431427
-2.364730 -246.829360 1787.332772
-2.876960 -246.929147 1787.455275
-2.255043 -246.847523 1787.250136
-2.320000 -246.816780 1787.326720
-1.937706 -246.380976 1787.545151
-1.924612 -246.402414 1787.520193
-2.169727 -246.631833 1787.476285
-1.901483 -246.455596 1787.463700
-3.757959 -246.962235 1787.494237
-3.693849 -246.969923 1787.490020
-3.164987 -246.950467 1787.433803
23.347812 -201.610597 1787.803004
23.935516 -201.311386 1787.801989
23.846934 -201.350921 1787.795934
24.130930 -201.205702 1787.569724
23.886944 -201.331563 1787.593977
24.305048 -201.202356 1787.799854
24.595888 -201.177477 1787.736588
24.508213 -201.182387 1787.736146
24.666520 -201.185780 1787.823585
25.142669 -201.211189 1787.652334
24.944105 -201.199570 1787.618784
24.974725 -201.215484 1787.675822
25.113804 -201.367501 1787.904855
25.185541 -201.282100 1787.810182
25.254120 -201.239349 1787.744344
25.621592 -201.586484 1787.754222
25.478539 -201.625551 1787.860353
25.230013 -201.629459 1788.004578
25.379602 -201.398989 1787.774553
25.537531 -201.247651 1787.589450
25.195273 -201.638637 1788.030157
22.858723 -202.021136 1787.824110
22.942243 -202.074879 1787.597454
23.341087 -201.695425 1787.593716
23.223222 -201.796742 1787.615924
23.220291 -201.687645 1787.826039
25.239025 -201.771974 1788.020249
26.026813 -201.673109 1787.566356
25.570842 -201.819116 1787.833643
25.826584 -201.881986 1787.691187
25.804696 -201.814328 1787.700170
25.901392 -201.792760 1787.643972
22.790095 -202.522918 1787.657215
22.839229 -202.432487 1787.590661
22.780710 -202.380099 1787.745742
25.746648 -202.612359 1787.637294
26.018391 -202.436842 1787.489989
25.729112 -202.490379 1787.674706
25.803529 -202.514329 1787.619291
25.673971 -202.277067 1787.756708
22.393234 -203.000178 1787.866090
22.504147 -203.057666 1787.789285
22.794060 -202.676910 1787.565397
22.765623 -202.677878 1787.637118
25.346856 -203.004660 1787.714308
25.406790 -202.890939 1787.730073
25.509596 -202.912754 1787.644657
25.585262 -202.968090 1787.562759
26.113485 -202.719383 1787.334524
25.983644 -202.768934 1787.396699
25.696244 -202.935439 1787.504528
22.651064 -203.507284 1787.855765
22.383274 -203.125206 1787.852748
22.939821 -203.501507 1787.745078
23.103196 -203.367939 1787.611341
23.057359 -203.632690 1787.795730
22.927720 -203.265131 1787.631314
22.888919 -203.344699 1787.679849
23.394613 -203.437961 1787.552602
23.442075 -203.530401 1787.595732
23.307513 -203.546614 1787.655440
24.445900 -203.637657 1787.781660
24.493373 -203.602864 1787.835662
24.785539 -203.389802 1787.809370
24.702798 -203.468317 1787.796581
25.096242 -203.350596 1787.636228
24.921861 -203.282891 1787.733200
25.139282 -203.333172 1787.618097
25.145668 -203.297005 1787.643370
25.253599 -203.127146 1787.702872
23.625958 -203.711249 1787.707159
23.512463 -203.787021 1787.814026
23.928314 -203.796940 1787.744679
23.711864 -203.663935 1787.623493
23.779716 -203.775183 1787.721925
24.227491 -203.727699 1787.609381
24.435870 -203.655003 1787.573412
4.657701 -220.052512 1787.801139
5.032474 -220.001137 1787.829940
4.839844 -220.241062 1787.688122
4.779075 -220.128443 1787.755400
4.879097 -220.192768 1787.716665
5.026172 -220.246418 1787.684060
5.860940 -219.928203 1787.835229
3.835908 -220.682772 1787.756713
3.720610 -220.809752 1787.780576
3.840683 -220.629606 1787.785564
4.046233 -220.522605 1787.710101
4.015060 -220.506745 1787.739301
3.980208 -220.558708 1787.728642
4.181267 -220.636605 1787.554962
4.059000 -220.702643 1787.590127
4.081826 -220.717622 1787.566546
4.574453 -220.232041 1787.694507
4.404222 -220.143022 1787.744832
4.583949 -220.468509 1787.547409
5.105520 -220.626530 1787.574234
5.314014 -220.947846 1787.543120
5.521663 -221.053931 1787.576386
5.280055 -220.136328 1787.776215
5.259347 -220.384499 1787.695179
5.451728 -220.905461 1787.599045
5.214826 -220.127322 1787.758461
4.919433 -220.460448 1787.565751
5.072752 -220.276070 1787.669220
5.279298 -220.109280 1787.784102
5.643334 -220.430182 1787.795795
5.920851 -220.626778 1787.837906
5.702216 -220.511474 1787.789191
5.737823 -220.677991 1787.739124
6.072347 -220.923630 1787.786486
3.247880 -221.362179 1787.818731
3.216032 -221.416019 1787.803680
3.540953 -221.121577 1787.731014
3.622970 -221.195842 1787.581338
5.871937 -221.141049 1787.689816
5.895976 -221.206189 1787.700782
5.719250 -221.083089 1787.619344
5.696435 -221.229298 1787.578341
5.660384 -220.848467 1787.670074
6.122940 -220.933506 1787.804793
6.010913 -221.201791 1787.784773
5.945100 -220.963594 1787.731374
2.737131 -221.821265 1787.688928
2.613744 -221.902897 1787.747669
2.944502 -221.684481 1787.653956
3.163049 -221.554145 1787.641980
3.143551 -221.489095 1787.781980
2.686188 -221.906822 1787.544379
5.745467 -221.803549 1787.713270
5.585144 -221.743673 1787.613255
5.769120 -221.877611 1787.753001
5.839744 -221.584158 1787.691465
5.821586 -221.696641 1787.712636
2.149149 -222.310028 1787.724818
2.010174 -222.383252 1787.597719
2.417913 -222.101476 1787.575523
2.500628 -221.984052 1787.780821
2.262483 -222.205428 1787.778079
5.162792 -222.196530 1787.558917
5.224049 -222.161232 1787.558243
5.635366 -222.072878 1787.729564
5.748174 -221.931191 1787.760757
5.413931 -221.926479 1787.595442
1.614825 -222.807242 1787.702284
1.617253 -222.850331 1787.796842
1.849526 -222.560210 1787.645985
1.830754 -222.616065 1787.806163
1.862650 -222.585748 1787.842237
5.082956 -222.550323 1787.583607
5.058542 -222.657899 1787.665287
5.567045 -222.236421 1787.797747
5.290620 -222.329547 1787.619048
5.610898 -222.111137 1787.736569
5.517424 -222.245367 1787.759373
5.398033 -222.275178 1787.673756
1.356412 -223.013998 1787.630301
1.322563 -223.057515 1787.658665
4.743310 -223.219817 1787.615011
4.815483 -223.119734 1787.709860
0.730828 -223.658465 1787.602514
0.618904 -223.785654 1787.621654
0.570575 -223.892555 1787.740278
0.862748 -223.509776 1787.582551
0.985550 -223.452260 1787.790951
1.125644 -223.271154 1787.693811
4.678303 -223.347694 1787.637261
4.694873 -223.315859 1787.582654
4.734759 -223.287250 1787.826070
4.597473 -223.486622 1787.823777
0.506402 -224.230086 1787.642700
0.355142 -224.238025 1787.846939
0.525822 -223.954950 1787.761166
4.297484 -223.952426 1787.657915
4.339172 -223.861454 1787.676499
4.204108 -224.159735 1787.567715
4.163006 -224.262015 1787.635743
0.202833 -224.455917 1787.802548
0.338480 -224.393198 1787.564878
0.214996 -224.453626 1787.570452
3.717307 -224.733991 1787.704082
3.653823 -224.732400 1787.644931
4.014393 -224.457541 1787.626711
3.947536 -224.539505 1787.692117
4.094032 -224.372852 1787.797345
-0.128342 -224.855453 1787.733514
-0.158402 -224.815963 1787.649781
-0.229115 -224.920796 1787.696991
3.008147 -225.226655 1787.895555
3.259639 -225.132001 1787.859512
3.137196 -225.176626 1787.955221
3.355313 -225.021851 1787.740106
3.351056 -224.968773 1787.681341
3.432751 -224.892179 1787.682071
3.515332 -224.904359 1787.767150
-0.935834 -225.563301 1787.644554
-1.245809 -225.938142 1787.722818
-1.062874 -225.740604 1787.698381
-0.567686 -225.367800 1787.821352
-0.605913 -225.347264 1787.758292
-1.181493 -225.981548 1787.825859
-0.687876 -225.441402 1787.772025
-0.547664 -225.233691 1787.698220
-0.663853 -225.297553 1787.642678
2.709816 -225.476731 1787.899392
2.734339 -225.454945 1787.806682
2.541578 -225.640904 1788.067869
2.749170 -225.434637 1787.977289
2.771007 -225.412784 1787.972712
2.470389 -225.714749 1788.000066
2.574784 -225.614110 1787.856336
2.472716 -225.714498 1787.933516
-1.319903 -225.935886 1787.612779
-1.312144 -225.885293 1787.563097
2.052675 -226.136595 1787.937511
1.983881 -226.204288 1787.990791
2.682793 -225.510587 1787.683276
1.991516 -226.197367 1787.961730
-1.583290 -226.269027 1787.563272
-1.811035 -226.735136 1787.809916
-1.442789 -226.201685 1787.744679
-1.444666 -226.224715 1787.770350
-1.473300 -226.165959 1787.651984
1.460030 -226.823810 1787.628096
1.297920 -226.904922 1787.781358
1.581236 -226.685171 1787.671754
1.529302 -226.723790 1787.695219
-1.869907 -226.725216 1787.621747
-2.323731 -227.165432 1787.847140
1.587424 -226.740557 1787.552341
1.396270 -226.879157 1787.641486
1.185077 -227.148392 1787.605653
-2.977975 -227.576603 1787.744618
-2.812735 -227.478350 1787.726442
0.890687 -227.443773 1787.725732
-3.032375 -227.631177 1787.791236
-3.193810 -227.927469 1787.779318
0.488049 -228.084915 1787.487636
0.489320 -228.064620 1787.596202
0.461493 -228.081000 1787.731239
-3.434746 -228.283754 1787.582404
-3.355526 -228.158599 1787.338159
-3.343968 -228.147834 1787.408955
0.274372 -228.516605 1787.487740
0.397651 -228.238915 1787.543557
0.380040 -228.241571 1787.710622
0.412485 -228.162245 1787.754833
0.245928 -228.407004 1787.788873
0.368693 -228.207372 1787.837820
-3.399688 -228.221082 1787.379137
-3.453532 -228.295304 1787.422718
-3.700515 -228.619841 1787.492654
-3.346233 -228.143424 1787.303449
-3.846665 -228.811557 1787.531388
-3.987321 -229.086809 1787.797126
-4.031412 -229.107438 1787.695798
-0.103389 -228.974026 1787.844700
-0.128970 -229.064771 1787.797654
0.174219 -228.669881 1787.572479
-4.286713 -229.579150 1787.601749
-4.141088 -229.286787 1787.705815
-4.038484 -229.179338 1787.822160
-0.233890 -229.198731 1787.743524
-0.230828 -229.195184 1787.813161
-0.338872 -229.315837 1787.731107
-0.446573 -229.436373 1787.508811
-4.315769 -229.957681 1787.642030
-4.628067 -230.079669 1787.764507
-4.407686 -229.828591 1787.780721
-4.300537 -229.713283 1787.656594
-0.697569 -229.755780 1787.581374
-0.588992 -229.610584 1787.431678
-0.720714 -229.789917 1787.546369
-0.687665 -229.735317 1787.719428
-0.950759 -230.068998 1787.628516
-1.043827 -230.064240 1787.843330
-4.776732 -230.310443 1787.807413
-4.781302 -230.505715 1787.782726
-4.672042 -230.447957 1787.559236
-4.526830 -230.196825 1787.626109
-4.527707 -230.213984 1787.615795
-1.088160 -230.384664 1787.616122
-1.177309 -230.500883 1787.647912
-1.124212 -230.296718 1787.747515
-1.282852 -230.529756 1787.738590
-5.140545 -230.932023 1787.778049
-5.093439 -230.884970 1787.817621
-4.829940 -230.620717 1787.655381
-4.911976 -230.702767 1787.650006
-1.460213 -230.686536 1787.811882
-1.502730 -230.876650 1787.679776
-1.337474 -230.666822 1787.666463
-5.609960 -231.436208 1787.779037
-5.370788 -231.466958 1787.645165
-5.540633 -231.523299 1787.691486
-5.263924 -231.165373 1787.552064
-5.265870 -231.243868 1787.665103
-1.734772 -231.150208 1787.714882
-5.962016 -231.973084 1787.705427
-6.041676 -232.001830 1787.741313
-6.082279 -231.880532 1787.824413
-5.479814 -231.729333 1787.560987
-5.717978 -231.888011 1787.599277
-5.555046 -231.788455 1787.568695
-5.544720 -231.531893 1787.688759
-1.818507 -231.231272 1787.709293
-1.943249 -231.345769 1787.730533
-2.204240 -231.596542 1787.557105
-2.281591 -231.666770 1787.585246
-2.560015 -232.064174 1787.810018
-2.345442 -231.799219 1787.831149
-2.412347 -231.821953 1787.698799
-2.676396 -232.224160 1787.832746
-6.269784 -232.252348 1787.777118
-6.290525 -232.308039 1787.770131
-6.156337 -232.079464 1787.772634
-6.051823 -232.175210 1787.656986
-5.940575 -232.041825 1787.658168
-2.823359 -232.278567 1787.549602
-2.852181 -232.368052 1787.660426
-2.696214 -232.197281 1787.722878
-6.522013 -232.908241 1787.841896
-6.320295 -232.850994 1787.632832
-6.360398 -232.695091 1787.703268
-6.212249 -232.518238 1787.600074
-2.854248 -232.447857 1787.797661
-3.018743 -232.737640 1787.778528
-6.482682 -233.053979 1787.760888
-6.558855 -233.289968 1787.752994
-6.244970 -233.146865 1787.545302
-6.262792 -233.422089 1787.568426
-6.445696 -233.470150 1787.684295
-3.360377 -233.187897 1787.811768
-3.721729 -233.614068 1787.879674
-3.785439 -233.470337 1787.611082
-3.738214 -233.406576 1787.591871
-3.625205 -233.336397 1787.651523
-6.719733 -233.906398 1787.752223
-6.770512 -233.649307 1787.830716
-6.412333 -233.696252 1787.618839
-6.618182 -233.892353 1787.702183
-6.295653 -233.790813 1787.572784
-6.400519 -234.039574 1787.616100
-6.307687 -233.920904 1787.578340
-6.446911 -233.594525 1787.658205
-6.406314 -233.515871 1787.651439
-6.571387 -233.519252 1787.751742
-3.904402 -233.623820 1787.653080
-4.058485 -233.873626 1787.775198
-3.869566 -233.565508 1787.623131
-6.350730 -234.349403 1787.607474
-6.652637 -234.115681 1787.741359
-6.687428 -234.392069 1787.826383
-6.775390 -233.958661 1787.767490
-6.933115 -233.970963 1787.832004
-4.000541 -233.961267 1787.936055
-4.290674 -234.119795 1787.728932
-4.285549 -233.954021 1787.583968
-4.377411 -234.062784 1787.588073
-4.680690 -234.372261 1787.593272
-4.387436 -234.097368 1787.608278
-6.888624 -234.679083 1787.851220
-6.827777 -234.727845 1787.822586
-6.388754 -234.837335 1787.661271
-6.352200 -234.709771 1787.629548
-6.599802 -234.651836 1787.733394
-6.547478 -234.486157 1787.735735
-6.558987 -234.520270 1787.735709
-6.227979 -234.836198 1787.624020
-5.910401 -234.806564 1787.560280
-4.741534 -234.741099 1787.785734
-4.637444 -234.429445 1787.673289
