71.41 -162.19 1719.54
71.48 -162.38 1719.63
68.47 -162.35 1719.55
68.27 -162.59 1719.56
71.31 -162.59 1719.86
71.39 -162.49 1719.78
71.51 -162.65 1719.77
71.71 -162.75 1719.59
67.92 -163.00 1719.67
67.97 -163.06 1719.56
71.67 -162.99 1719.62
71.64 -162.74 1719.67
67.79 -163.08 1719.79
67.67 -163.27 1719.85
67.89 -163.12 1719.62
67.82 -163.32 1719.61
71.59 -163.10 1719.69
71.59 -163.12 1719.67
67.64 -163.44 1719.80
67.61 -163.56 1719.83
71.35 -163.48 1719.60
71.46 -163.39 1719.55
67.80 -163.85 1719.52
67.69 -163.76 1719.69
70.26 -164.05 1719.61
70.58 -163.93 1719.66
70.44 -163.99 1719.65
70.28 -164.04 1719.60
70.86 -163.78 1719.71
70.74 -163.86 1719.76
67.82 -164.22 1719.76
68.18 -164.39 1719.74
68.04 -164.30 1719.64
68.29 -164.42 1719.77
68.33 -164.39 1719.72
69.04 -164.24 1719.55
69.20 -164.37 1719.80
69.20 -164.33 1719.73
68.58 -164.27 1719.56
68.82 -164.21 1719.46
68.98 -164.12 1719.34
69.68 -164.25 1719.74
69.58 -164.29 1719.77
69.46 -164.11 1719.40
69.35 -164.19 1719.52
69.58 -164.20 1719.57
69.21 -164.27 1719.62
69.64 -164.13 1719.46
69.98 -164.10 1719.54
70.09 -164.12 1719.68
74.50 -228.23 1719.71
74.68 -228.19 1719.71
75.20 -228.11 1719.81
75.10 -228.10 1719.83
75.50 -228.16 1719.74
75.42 -228.18 1719.61
75.60 -228.20 1719.61
75.82 -228.22 1719.59
73.47 -228.61 1719.74
73.71 -228.52 1719.66
73.83 -228.46 1719.67
74.00 -228.52 1719.58
73.80 -228.66 1719.53
74.14 -228.42 1719.61
74.14 -228.59 1719.45
74.28 -228.54 1719.43
74.38 -228.42 1719.50
74.47 -228.31 1719.60
74.46 -228.29 1719.62
75.39 -228.21 1719.54
75.97 -228.29 1719.60
76.01 -228.28 1719.45
76.30 -228.43 1719.53
76.17 -228.33 1719.37
76.22 -228.43 1719.74
76.40 -228.60 1719.71
73.30 -228.87 1719.73
73.36 -229.18 1719.53
73.21 -229.18 1719.68
73.58 -228.77 1719.58
73.41 -228.91 1719.60
73.71 -228.80 1719.49
76.56 -228.66 1719.55
76.57 -229.03 1719.86
76.62 -229.14 1719.85
73.16 -229.57 1719.65
73.15 -229.65 1719.68
76.86 -229.38 1719.59
76.83 -229.29 1719.61
76.90 -229.26 1719.50
76.73 -229.10 1719.67
76.95 -229.61 1719.54
73.31 -229.97 1719.51
73.22 -230.03 1719.74
73.14 -229.80 1719.76
76.94 -229.74 1719.58
76.82 -229.71 1719.73
77.00 -229.73 1719.50
73.47 -230.41 1719.64
73.42 -230.18 1719.42
73.39 -230.32 1719.72
73.33 -230.14 1719.62
76.84 -230.27 1719.73
77.06 -230.14 1719.51
76.88 -230.10 1719.70
77.09 -230.39 1719.48
73.60 -230.52 1719.41
73.50 -230.48 1719.73
76.70 -230.75 1719.75
76.76 -230.63 1719.73
76.87 -230.43 1719.70
74.00 -230.87 1719.73
74.10 -230.92 1719.75
73.77 -230.77 1719.69
74.20 -230.99 1719.69
76.81 -230.81 1719.65
77.11 -230.54 1719.47
77.08 -230.89 1719.43
77.11 -230.67 1719.44
77.06 -230.95 1719.44
74.26 -231.09 1719.57
74.72 -231.16 1719.76
74.65 -231.22 1719.65
75.05 -231.23 1719.78
75.03 -231.43 1719.55
75.08 -231.57 1719.42
75.21 -231.60 1719.45
74.82 -231.16 1719.80
75.25 -231.41 1719.66
75.27 -231.65 1719.41
76.52 -231.65 1719.53
76.71 -231.02 1719.67
76.57 -231.60 1719.53
76.39 -231.53 1719.62
76.84 -231.23 1719.56
76.82 -231.20 1719.58
76.82 -231.25 1719.56
76.75 -230.99 1719.66
76.99 -231.40 1719.44
76.81 -231.09 1719.61
75.71 -231.33 1719.79
75.61 -231.37 1719.76
75.66 -231.59 1719.60
75.39 -231.68 1719.42
75.92 -231.23 1719.86
75.84 -231.16 1719.91
75.94 -231.26 1719.83
76.10 -231.78 1719.52
75.89 -231.62 1719.61
76.30 -231.80 1719.50
76.29 -231.47 1719.67
69.21 -161.93 1719.86
69.45 -161.95 1719.94
69.57 -161.77 1719.77
69.67 -161.81 1719.81
69.67 -161.80 1719.81
69.63 -161.81 1719.81
69.98 -161.97 1719.95
69.81 -162.05 1720.05
70.02 -161.99 1719.96
70.30 -161.91 1719.86
68.44 -162.31 1719.98
68.57 -162.23 1720.09
68.71 -162.19 1720.06
68.96 -162.07 1719.99
70.56 -162.14 1719.97
70.67 -162.10 1719.90
68.08 -162.47 1720.08
68.06 -162.59 1719.91
68.04 -162.62 1719.89
68.14 -162.51 1719.92
68.31 -162.36 1720.01
70.89 -162.18 1719.84
71.12 -162.31 1719.81
71.21 -162.44 1719.86
71.06 -162.32 1719.84
67.84 -162.73 1720.05
67.77 -162.86 1720.01
67.94 -162.70 1719.94
67.99 -162.73 1719.82
67.98 -162.87 1719.68
71.25 -163.07 1719.99
71.23 -162.96 1719.98
71.02 -162.80 1720.06
71.35 -162.88 1719.91
71.27 -162.82 1719.94
71.58 -162.97 1719.74
67.59 -163.01 1720.12
67.57 -162.97 1720.17
67.51 -163.09 1720.19
71.27 -163.18 1719.94
71.20 -163.20 1720.00
71.42 -163.24 1719.80
67.54 -163.63 1719.96
70.93 -163.58 1719.99
70.92 -163.64 1719.96
70.98 -163.68 1719.83
71.06 -163.64 1719.77
71.19 -163.54 1719.76
67.67 -164.05 1719.84
67.66 -163.97 1719.81
70.55 -163.99 1720.10
70.48 -164.02 1719.96
70.76 -163.83 1719.91
70.72 -163.82 1720.01
70.64 -163.87 1720.15
67.67 -164.23 1720.04
67.83 -164.28 1719.81
68.64 -164.48 1719.88
68.53 -164.47 1719.85
69.02 -164.40 1719.81
69.02 -164.38 1719.78
68.76 -164.58 1720.09
69.44 -164.35 1719.87
69.52 -164.31 1719.80
69.97 -164.19 1719.80
70.02 -164.20 1719.90
70.20 -164.16 1720.05
67.89 -164.44 1720.00
68.10 -164.49 1719.94
68.08 -164.47 1719.91
68.26 -164.50 1719.90
68.28 -164.57 1720.03
69.20 -164.56 1720.24
69.22 -164.40 1719.86
69.20 -164.42 1719.90
69.54 -164.45 1720.20
69.52 -164.41 1720.09
69.50 -164.46 1720.20
74.16 -227.97 1720.08
74.30 -227.95 1720.10
74.00 -227.99 1720.07
73.91 -228.09 1719.96
73.84 -228.31 1719.78
74.40 -228.15 1719.84
74.36 -228.13 1719.87
74.70 -228.10 1719.85
74.73 -228.07 1719.88
74.73 -228.05 1719.93
74.83 -228.04 1719.96
75.11 -228.03 1720.06
75.19 -228.09 1719.88
75.43 -228.13 1719.83
75.61 -228.17 1720.03
75.76 -228.22 1719.94
73.29 -228.37 1720.01
73.22 -228.34 1720.08
73.31 -228.39 1719.98
73.27 -228.58 1719.89
73.29 -228.58 1719.88
73.72 -228.24 1719.88
73.63 -228.36 1719.81
73.54 -228.26 1719.92
76.01 -228.40 1719.99
76.08 -228.51 1720.02
76.37 -228.66 1719.85
76.38 -228.71 1719.90
73.04 -229.06 1719.91
73.20 -228.88 1719.82
73.28 -228.71 1719.81
73.09 -229.00 1719.86
76.19 -228.66 1720.07
76.36 -228.77 1719.95
76.48 -228.94 1719.92
76.47 -229.10 1720.01
72.93 -229.40 1720.05
76.40 -229.19 1720.11
72.99 -229.70 1720.05
73.02 -229.60 1719.91
73.00 -229.59 1719.94
76.48 -229.34 1720.03
76.45 -229.60 1720.06
76.63 -229.27 1719.88
73.05 -229.84 1720.10
73.15 -229.93 1719.86
76.55 -229.92 1719.99
76.64 -229.65 1719.90
76.72 -229.93 1719.84
73.45 -230.35 1719.95
73.40 -230.29 1719.96
73.21 -230.06 1720.00
76.42 -230.10 1720.05
76.24 -230.11 1720.16
76.25 -230.27 1720.12
76.36 -230.36 1720.04
76.64 -230.13 1719.89
76.64 -230.05 1719.90
73.50 -230.38 1720.03
73.58 -230.46 1720.01
73.90 -230.75 1719.86
73.94 -230.72 1719.96
73.94 -230.57 1720.19
74.08 -230.70 1720.07
74.19 -230.78 1720.02
76.11 -230.65 1720.08
76.12 -230.51 1720.13
76.32 -230.49 1720.03
76.33 -230.69 1719.96
76.41 -230.78 1719.89
76.42 -230.59 1719.95
76.50 -230.63 1719.89
74.10 -230.84 1719.89
74.39 -230.99 1719.83
74.74 -230.99 1719.98
74.53 -230.94 1719.96
75.00 -231.07 1719.95
75.35 -231.00 1720.03
75.44 -231.22 1719.87
75.19 -230.89 1720.13
75.02 -231.01 1720.02
74.99 -230.90 1720.12
75.65 -230.93 1720.06
75.70 -231.06 1719.98
75.47 -231.22 1719.87
75.51 -231.27 1719.83
75.90 -230.96 1719.99
75.98 -230.82 1720.04
75.84 -230.68 1720.15
76.35 -230.91 1719.88
76.51 -231.03 1719.76
76.25 -230.86 1719.94
75.97 -231.12 1719.90
76.18 -231.09 1719.87
75.89 -231.15 1719.91
68.20 -162.34 1720.24
68.32 -162.28 1720.33
68.61 -162.24 1720.27
68.75 -162.19 1720.16
68.90 -162.20 1720.28
68.89 -162.23 1720.37
69.15 -162.14 1720.18
69.37 -162.17 1720.25
69.53 -162.16 1720.22
67.73 -162.53 1720.42
68.02 -162.43 1720.23
69.82 -162.17 1720.14
70.11 -162.42 1720.26
70.18 -162.58 1720.36
70.10 -162.25 1720.15
70.42 -162.29 1720.09
70.69 -162.45 1720.07
70.48 -162.42 1720.15
70.74 -162.63 1720.16
70.61 -162.33 1720.05
70.71 -162.41 1720.05
67.50 -162.92 1720.31
67.64 -162.69 1720.36
70.94 -162.64 1720.07
70.75 -162.81 1720.24
70.57 -162.77 1720.30
70.71 -162.91 1720.30
70.85 -162.94 1720.19
70.91 -163.21 1720.18
67.32 -163.37 1720.24
67.40 -163.11 1720.29
67.26 -163.15 1720.42
67.02 -163.31 1720.59
70.74 -163.24 1720.33
70.58 -163.17 1720.45
67.47 -163.76 1720.06
67.40 -163.62 1720.14
67.13 -163.49 1720.45
67.23 -163.59 1720.34
67.24 -163.52 1720.33
70.68 -163.65 1720.28
70.75 -163.55 1720.25
70.50 -163.51 1720.50
67.29 -163.86 1720.31
67.41 -163.83 1720.14
67.36 -164.08 1720.30
70.50 -164.01 1720.19
70.54 -163.96 1720.19
67.42 -164.24 1720.38
67.66 -164.30 1720.12
69.89 -164.32 1720.31
70.24 -164.13 1720.20
70.20 -164.15 1720.19
70.23 -164.14 1720.34
70.12 -164.21 1720.42
67.86 -164.43 1720.03
67.89 -164.58 1720.31
68.00 -164.63 1720.32
68.04 -164.59 1720.16
68.44 -164.75 1720.43
68.36 -164.64 1720.18
68.64 -164.72 1720.40
69.19 -164.61 1720.43
69.08 -164.64 1720.44
68.85 -164.64 1720.29
69.02 -164.66 1720.44
68.84 -164.65 1720.30
69.43 -164.50 1720.26
69.33 -164.55 1720.31
69.36 -164.57 1720.56
74.47 -227.86 1720.27
72.94 -228.16 1720.40
72.92 -228.10 1720.46
72.96 -228.14 1720.40
73.21 -228.14 1720.24
73.23 -228.11 1720.25
73.42 -228.13 1720.10
73.26 -228.13 1720.22
73.53 -227.96 1720.20
73.49 -227.95 1720.22
73.78 -227.77 1720.36
73.69 -227.92 1720.20
74.27 -227.84 1720.24
74.15 -227.77 1720.33
74.21 -227.88 1720.19
74.36 -227.84 1720.26
74.10 -227.71 1720.41
74.70 -227.95 1720.14
74.93 -227.97 1720.33
74.96 -227.98 1720.25
75.24 -228.07 1720.26
75.47 -228.19 1720.24
75.41 -228.18 1720.30
72.77 -228.56 1720.44
72.81 -228.16 1720.53
72.99 -228.37 1720.29
72.93 -228.52 1720.28
73.04 -228.73 1720.02
75.66 -228.34 1720.30
75.73 -228.32 1720.22
75.55 -228.24 1720.27
72.73 -228.88 1720.43
72.82 -228.82 1720.28
72.86 -228.95 1720.19
76.09 -228.92 1720.28
76.04 -228.87 1720.29
72.85 -229.27 1720.21
72.85 -229.14 1720.20
75.98 -229.03 1720.38
76.05 -229.10 1720.34
76.27 -229.07 1720.19
72.93 -229.52 1720.14
72.90 -229.47 1720.19
75.97 -229.67 1720.39
76.08 -229.48 1720.33
76.37 -229.54 1720.14
76.20 -229.42 1720.26
73.05 -229.85 1720.20
72.96 -229.70 1720.36
76.09 -229.79 1720.29
76.33 -229.65 1720.16
76.23 -230.00 1720.17
76.32 -229.87 1720.13
73.33 -230.15 1720.20
73.18 -230.01 1720.19
73.15 -230.00 1720.17
73.95 -230.48 1720.33
73.75 -230.40 1720.26
76.02 -230.30 1720.21
73.77 -230.46 1720.19
73.76 -230.46 1720.18
74.36 -230.53 1720.40
74.33 -230.62 1720.29
74.60 -230.63 1720.36
74.74 -230.78 1720.21
75.07 -230.76 1720.24
75.14 -230.82 1720.19
75.07 -230.77 1720.23
75.08 -230.58 1720.38
74.83 -230.62 1720.38
75.73 -230.58 1720.23
75.42 -230.88 1720.12
75.41 -230.80 1720.18
74.89 -230.87 1720.14
68.18 -162.30 1720.59
68.02 -162.34 1720.55
68.56 -162.24 1720.44
68.57 -162.24 1720.48
68.73 -162.28 1720.69
69.07 -162.27 1720.50
68.77 -162.23 1720.41
67.68 -162.50 1720.61
67.84 -162.44 1720.54
67.98 -162.34 1720.63
69.10 -162.40 1720.74
69.35 -162.23 1720.34
69.30 -162.24 1720.37
69.52 -162.33 1720.40
69.52 -162.19 1720.25
69.37 -162.44 1720.59
69.22 -162.26 1720.41
69.99 -162.56 1720.43
69.78 -162.30 1720.29
69.70 -162.43 1720.45
69.79 -162.59 1720.57
67.47 -162.83 1720.44
67.44 -162.73 1720.58
67.64 -162.64 1720.43
69.94 -162.82 1720.66
69.89 -162.76 1720.64
70.05 -162.75 1720.56
69.95 -162.86 1720.69
70.19 -162.89 1720.58
70.47 -162.92 1720.42
67.16 -162.99 1720.66
67.21 -163.07 1720.54
67.06 -163.21 1720.61
70.24 -163.21 1720.68
70.50 -163.21 1720.52
66.98 -163.55 1720.58
67.12 -163.71 1720.43
66.91 -163.63 1720.64
70.61 -163.79 1720.32
70.41 -163.74 1720.58
70.48 -163.70 1720.49
67.24 -163.82 1720.36
67.00 -163.78 1720.53
67.03 -163.93 1720.55
66.87 -164.10 1720.71
70.40 -164.02 1720.32
70.35 -163.94 1720.54
67.14 -164.24 1720.59
67.12 -164.30 1720.64
67.22 -164.43 1720.65
67.34 -164.32 1720.49
67.24 -164.26 1720.53
69.78 -164.38 1720.67
70.23 -164.12 1720.54
70.02 -164.27 1720.52
67.46 -164.42 1720.46
67.52 -164.63 1720.69
68.05 -164.71 1720.52
68.06 -164.75 1720.61
67.62 -164.57 1720.54
67.73 -164.52 1720.39
68.13 -164.75 1720.58
68.50 -164.77 1720.49
68.26 -164.78 1720.60
69.51 -164.51 1720.60
69.70 -164.43 1720.59
73.17 -227.73 1720.56
73.43 -227.85 1720.34
73.51 -227.68 1720.49
73.65 -227.59 1720.58
74.11 -227.63 1720.57
74.36 -227.69 1720.54
74.64 -227.82 1720.48
74.72 -227.89 1720.53
74.87 -227.94 1720.43
75.04 -228.18 1720.65
74.97 -228.14 1720.70
75.33 -228.63 1720.69
75.54 -228.43 1720.44
75.50 -228.40 1720.46
75.36 -228.27 1720.48
75.20 -228.22 1720.53
75.74 -228.55 1720.37
75.57 -228.55 1720.50
72.72 -228.96 1720.45
75.44 -228.87 1720.67
75.52 -228.64 1720.58
75.54 -228.94 1720.63
75.40 -229.06 1720.74
75.69 -228.69 1720.48
75.82 -228.79 1720.42
72.74 -229.18 1720.47
75.83 -229.18 1720.49
75.75 -229.16 1720.53
75.88 -229.27 1720.46
72.79 -229.43 1720.48
72.81 -229.48 1720.62
75.59 -229.38 1720.62
75.76 -229.26 1720.53
75.97 -229.34 1720.41
75.56 -229.23 1720.64
75.84 -229.61 1720.47
75.73 -229.53 1720.54
72.99 -229.76 1720.46
73.05 -229.85 1720.51
73.00 -229.76 1720.69
75.34 -229.98 1720.65
75.45 -230.08 1720.57
75.64 -229.79 1720.55
75.67 -230.01 1720.47
75.84 -229.87 1720.42
76.00 -230.07 1720.30
73.23 -229.98 1720.53
73.14 -229.92 1720.47
73.44 -230.13 1720.55
73.76 -230.32 1720.45
73.77 -230.27 1720.58
73.89 -230.39 1720.44
73.95 -230.41 1720.46
74.07 -230.28 1720.71
75.08 -230.33 1720.59
74.84 -230.23 1720.75
75.20 -230.10 1720.68
75.33 -230.31 1720.48
75.27 -230.25 1720.55
75.61 -230.41 1720.35
75.56 -230.28 1720.42
75.62 -230.24 1720.42
75.67 -230.16 1720.43
76.01 -230.23 1720.24
75.73 -230.45 1720.29
74.31 -230.38 1720.64
74.22 -230.45 1720.48
74.45 -230.42 1720.62
74.51 -230.32 1720.72
74.96 -230.49 1720.48
75.09 -230.46 1720.49
67.80 -162.39 1720.79
68.08 -162.33 1720.86
68.02 -162.33 1720.70
68.20 -162.31 1720.78
68.54 -162.31 1720.88
68.57 -162.29 1720.78
67.54 -162.50 1721.00
67.49 -162.55 1720.91
67.82 -162.39 1720.98
68.72 -162.34 1720.90
68.77 -162.40 1720.99
68.91 -162.34 1720.76
69.12 -162.56 1720.98
69.26 -162.49 1720.78
69.35 -162.62 1720.89
67.14 -162.80 1720.89
67.28 -162.69 1720.89
69.51 -162.67 1720.82
69.44 -162.67 1720.87
69.81 -162.79 1720.70
69.80 -162.95 1720.87
66.91 -163.23 1720.72
66.73 -163.10 1720.91
66.73 -163.15 1720.88
67.04 -163.18 1720.65
66.89 -162.96 1720.92
69.92 -163.18 1720.95
69.88 -163.16 1720.96
70.27 -163.30 1720.70
69.84 -163.34 1721.12
70.30 -163.33 1720.69
66.74 -163.76 1720.73
66.98 -163.36 1720.61
66.51 -163.51 1720.89
66.94 -163.35 1720.64
66.76 -163.33 1720.77
66.56 -163.43 1720.88
69.97 -163.43 1721.04
70.10 -163.47 1720.93
70.15 -163.64 1720.93
70.01 -163.50 1721.01
70.35 -163.71 1720.67
70.32 -163.63 1720.72
66.83 -163.91 1720.69
66.55 -164.04 1720.89
66.33 -164.01 1721.02
66.55 -163.87 1720.87
66.38 -163.67 1720.97
70.02 -164.08 1720.89
70.15 -163.91 1720.85
70.16 -164.02 1720.77
66.58 -164.18 1720.92
66.82 -164.23 1720.79
66.81 -164.25 1720.80
69.75 -164.33 1720.85
69.71 -164.37 1720.83
70.17 -164.13 1720.66
66.85 -164.73 1721.12
66.99 -164.63 1720.95
66.79 -164.65 1721.08
66.79 -164.55 1721.01
66.71 -164.69 1721.17
67.46 -164.82 1720.95
67.40 -164.66 1720.78
67.24 -164.60 1720.79
67.78 -164.73 1720.70
67.60 -164.87 1721.00
67.73 -164.79 1720.85
68.19 -164.81 1720.90
68.28 -164.81 1720.91
68.77 -164.74 1720.65
68.72 -164.75 1720.76
69.27 -164.52 1720.96
69.15 -164.59 1720.89
69.24 -164.55 1720.91
69.01 -164.67 1720.69
69.01 -164.67 1720.70
69.73 -164.40 1720.73
68.59 -164.76 1720.90
68.61 -164.76 1720.89
72.77 -227.35 1721.04
72.93 -227.26 1721.05
72.75 -227.58 1720.91
73.07 -227.44 1720.87
73.00 -227.67 1720.69
73.47 -227.21 1721.01
73.36 -227.42 1720.79
73.30 -227.58 1720.67
73.23 -227.62 1720.65
73.71 -227.34 1720.90
73.80 -227.40 1720.82
73.53 -227.47 1720.72
73.98 -227.51 1720.74
74.04 -227.51 1720.76
74.15 -227.55 1720.74
74.27 -227.59 1720.90
72.74 -227.94 1720.68
72.93 -227.84 1720.62
72.64 -228.05 1720.74
72.52 -227.87 1720.95
72.55 -227.88 1720.91
72.70 -227.98 1720.70
74.43 -227.68 1720.73
74.56 -227.77 1720.69
74.76 -228.01 1720.81
74.53 -227.81 1720.97
74.66 -228.03 1720.99
72.68 -228.34 1720.60
72.69 -228.44 1720.56
72.66 -228.26 1720.64
74.86 -228.21 1720.88
74.95 -228.20 1720.78
74.84 -228.34 1721.00
75.00 -228.50 1720.90
75.03 -228.43 1720.84
75.13 -228.50 1720.79
72.60 -229.00 1720.67
72.35 -228.30 1720.98
72.61 -228.62 1720.62
72.50 -228.53 1720.78
72.40 -228.45 1720.93
72.44 -228.87 1720.93
75.07 -228.92 1720.95
75.05 -229.07 1720.99
75.13 -228.93 1720.91
75.12 -228.65 1720.86
72.53 -229.07 1720.85
72.45 -228.97 1720.95
72.64 -229.27 1720.77
72.92 -229.70 1721.02
72.86 -229.63 1720.79
72.80 -229.59 1721.00
72.84 -229.55 1720.67
74.97 -229.36 1721.06
75.10 -229.41 1720.94
75.07 -229.16 1720.99
75.35 -229.48 1720.76
75.34 -229.62 1720.76
75.20 -229.39 1720.87
73.34 -229.94 1720.93
73.48 -229.99 1720.97
73.05 -229.78 1720.81
73.42 -230.02 1720.78
73.63 -230.05 1720.94
73.82 -230.07 1720.99
75.09 -229.78 1720.87
75.42 -229.66 1720.71
75.22 -229.66 1720.83
75.20 -229.85 1720.77
74.24 -230.24 1720.83
74.29 -230.10 1721.00
74.16 -230.21 1720.87
74.72 -230.03 1720.96
74.65 -230.03 1720.99
74.44 -230.17 1720.91
74.50 -230.24 1720.82
75.01 -230.07 1720.79
67.11 -162.62 1721.17
67.22 -162.55 1721.28
67.40 -162.54 1721.23
67.48 -162.53 1721.01
67.76 -162.46 1721.26
67.86 -162.38 1721.04
68.08 -162.36 1721.06
68.37 -162.42 1721.14
68.33 -162.41 1721.16
68.53 -162.45 1721.16
68.75 -162.44 1721.06
68.64 -162.47 1721.16
69.01 -162.64 1721.18
69.06 -162.58 1721.06
66.20 -162.75 1721.35
66.08 -163.04 1721.25
66.43 -162.87 1721.21
66.24 -162.98 1721.23
66.59 -162.94 1721.09
66.87 -162.70 1721.20
66.85 -162.78 1721.12
67.10 -162.68 1721.08
66.91 -162.88 1720.97
69.21 -162.72 1721.12
69.42 -162.97 1721.20
65.75 -163.38 1721.29
65.65 -163.34 1721.34
69.49 -162.99 1721.15
69.70 -163.12 1721.07
65.80 -163.49 1721.24
66.23 -163.41 1721.07
66.06 -163.16 1721.21
66.07 -163.53 1721.12
65.78 -163.69 1721.24
66.24 -163.15 1721.13
66.24 -163.29 1721.10
69.88 -163.61 1721.20
69.87 -163.64 1721.22
66.21 -163.90 1721.07
66.19 -163.91 1721.08
66.21 -163.99 1721.08
69.90 -163.97 1721.18
70.00 -163.89 1721.07
70.05 -163.82 1721.04
66.00 -164.06 1721.24
66.03 -164.12 1721.27
66.17 -164.22 1721.23
66.26 -164.18 1721.14
66.29 -164.07 1721.08
69.53 -164.27 1721.31
69.94 -164.13 1720.97
69.83 -164.17 1721.05
69.60 -164.23 1721.28
66.47 -164.43 1721.14
66.58 -164.49 1721.10
66.37 -164.44 1721.23
66.24 -164.43 1721.31
67.06 -164.88 1721.20
66.82 -164.77 1721.18
67.10 -164.94 1721.25
68.85 -164.68 1721.00
68.68 -164.62 1721.36
68.62 -164.65 1721.36
68.92 -164.59 1721.20
69.17 -164.52 1721.10
69.22 -164.48 1721.16
67.46 -164.91 1721.11
67.51 -164.88 1721.03
67.37 -164.90 1721.08
67.76 -164.90 1721.16
67.54 -164.90 1721.08
68.10 -164.84 1721.06
68.08 -164.84 1721.27
68.35 -164.74 1721.33
68.41 -164.77 1721.11
68.46 -164.75 1721.14
68.47 -164.78 1721.01
72.74 -226.96 1721.32
72.76 -227.05 1721.25
72.98 -226.96 1721.29
73.08 -226.97 1721.27
73.12 -227.16 1721.09
73.19 -227.07 1721.17
73.44 -227.15 1721.07
73.58 -227.15 1721.11
73.84 -227.25 1721.10
73.76 -227.14 1721.21
72.49 -227.43 1721.12
72.55 -227.59 1721.00
72.72 -227.35 1721.06
72.67 -227.49 1721.00
73.87 -227.31 1721.01
73.98 -227.38 1720.95
74.26 -227.53 1721.07
74.32 -227.57 1721.35
74.36 -227.63 1721.23
72.38 -227.97 1721.01
72.49 -227.76 1720.99
72.63 -227.65 1720.93
72.27 -227.96 1721.08
72.22 -227.96 1721.13
72.12 -228.01 1721.21
74.39 -227.67 1721.17
74.40 -227.85 1721.43
74.51 -227.90 1721.10
74.68 -228.17 1721.11
74.52 -228.11 1721.39
72.03 -228.04 1721.31
74.68 -228.34 1721.24
74.65 -228.20 1721.21
72.26 -228.39 1721.10
72.16 -228.59 1721.26
74.69 -228.48 1721.26
74.78 -228.46 1721.11
74.98 -228.63 1720.96
74.81 -228.38 1721.06
72.30 -228.87 1721.16
72.36 -228.70 1721.02
72.21 -228.70 1721.21
72.38 -228.63 1720.98
75.00 -228.64 1720.95
74.95 -228.79 1721.03
72.42 -229.21 1721.24
72.44 -229.24 1721.23
72.51 -229.34 1721.17
74.84 -229.03 1721.18
74.84 -229.10 1721.18
74.89 -229.26 1721.14
72.78 -229.60 1721.11
72.54 -229.35 1721.13
72.84 -229.65 1721.16
74.62 -229.70 1721.23
74.86 -229.64 1721.11
72.92 -229.70 1721.09
73.54 -229.90 1721.22
73.50 -229.86 1721.30
73.24 -229.83 1721.18
74.01 -229.91 1721.25
74.02 -229.85 1721.32
73.85 -230.03 1721.08
73.73 -230.02 1721.05
74.26 -230.07 1721.05
74.33 -230.04 1721.08
74.30 -229.89 1721.24
74.78 -229.82 1721.08
74.61 -229.90 1721.10
74.58 -229.98 1721.06
74.86 -229.82 1721.03
66.40 -162.55 1721.48
66.48 -162.81 1721.23
66.26 -162.74 1721.34
66.51 -162.49 1721.51
66.56 -162.55 1721.44
66.69 -162.47 1721.52
67.04 -162.49 1721.50
67.17 -162.54 1721.34
67.27 -162.43 1721.62
67.29 -162.47 1721.49
67.73 -162.50 1721.45
67.70 -162.49 1721.39
68.10 -162.54 1721.47
68.17 -162.57 1721.51
68.37 -162.58 1721.45
68.22 -162.53 1721.43
68.56 -162.81 1721.59
68.51 -162.76 1721.56
68.37 -162.67 1721.55
65.54 -162.94 1721.50
65.26 -162.78 1721.74
65.32 -162.56 1721.78
65.66 -162.66 1721.58
65.62 -162.61 1721.63
65.46 -162.48 1721.75
65.96 -162.73 1721.45
66.17 -162.78 1721.35
65.96 -162.98 1721.33
65.97 -162.86 1721.38
68.85 -162.77 1721.42
68.94 -162.76 1721.35
68.69 -163.04 1721.75
68.74 -162.72 1721.42
69.19 -162.87 1721.29
65.31 -163.21 1721.57
65.61 -163.28 1721.37
65.53 -163.26 1721.43
65.91 -163.11 1721.29
65.65 -163.29 1721.35
69.28 -163.09 1721.41
69.45 -163.27 1721.40
69.75 -163.34 1721.19
69.47 -163.25 1721.37
65.52 -163.42 1721.42
65.37 -163.36 1721.52
65.41 -163.57 1721.50
65.30 -163.63 1721.60
65.67 -163.67 1721.30
69.54 -163.37 1721.39
69.65 -163.38 1721.30
69.51 -163.61 1721.53
69.77 -163.67 1721.33
65.51 -163.91 1721.53
65.65 -164.00 1721.48
65.64 -163.99 1721.48
65.66 -163.87 1721.39
65.91 -163.80 1721.20
69.48 -163.92 1721.55
69.79 -163.84 1721.36
69.16 -164.33 1721.51
69.55 -164.06 1721.50
69.33 -164.28 1721.44
69.26 -164.35 1721.41
69.69 -164.14 1721.31
66.62 -164.79 1721.34
66.23 -164.56 1721.45
66.59 -164.70 1721.28
66.12 -164.54 1721.53
66.30 -164.60 1721.43
68.07 -164.72 1721.69
67.98 -164.68 1721.84
68.08 -164.81 1721.40
68.48 -164.65 1721.49
68.59 -164.59 1721.52
68.86 -164.44 1721.62
66.82 -164.99 1721.43
67.03 -165.01 1721.55
66.93 -165.02 1721.54
67.48 -164.94 1721.57
67.27 -164.99 1721.46
67.72 -164.90 1721.45
67.88 -164.87 1721.43
67.76 -164.88 1721.53
72.38 -226.57 1721.66
72.66 -226.62 1721.60
72.66 -226.67 1721.56
72.67 -226.70 1721.53
72.97 -226.67 1721.57
72.93 -226.90 1721.35
73.09 -226.70 1721.56
73.13 -226.76 1721.49
72.16 -226.93 1721.55
72.55 -227.04 1721.33
72.40 -227.04 1721.37
72.34 -227.02 1721.42
72.33 -226.91 1721.48
73.37 -226.94 1721.32
73.61 -227.03 1721.27
73.52 -226.88 1721.47
73.75 -227.04 1721.40
73.76 -226.97 1721.54
74.00 -227.21 1721.43
73.99 -227.20 1721.45
72.09 -227.63 1721.30
72.09 -227.50 1721.34
72.30 -227.24 1721.33
72.17 -227.24 1721.41
74.08 -227.30 1721.44
74.14 -227.37 1721.63
74.29 -227.62 1721.55
72.09 -227.67 1721.30
71.94 -227.82 1721.41
74.31 -227.65 1721.54
71.99 -228.11 1721.37
71.92 -228.27 1721.53
71.98 -228.41 1721.50
72.12 -228.62 1721.32
74.47 -228.13 1721.49
74.47 -228.23 1721.51
74.62 -228.78 1721.41
72.16 -228.73 1721.34
72.11 -228.77 1721.51
72.12 -228.73 1721.44
72.38 -229.26 1721.54
72.20 -229.02 1721.62
74.61 -228.97 1721.37
74.51 -228.79 1721.54
74.40 -229.35 1721.52
74.67 -229.08 1721.32
74.73 -228.91 1721.28
72.57 -229.44 1721.33
72.63 -229.50 1721.50
72.91 -229.63 1721.57
72.90 -229.65 1721.51
72.83 -229.63 1721.41
73.14 -229.74 1721.44
74.17 -229.61 1721.51
74.30 -229.70 1721.37
74.39 -229.57 1721.41
74.35 -229.62 1721.39
74.66 -229.56 1721.25
74.58 -229.72 1721.25
73.28 -229.76 1721.51
73.58 -229.80 1721.48
73.57 -229.77 1721.55
74.05 -229.76 1721.47
73.74 -229.84 1721.37
65.44 -162.45 1721.77
65.35 -162.41 1721.83
65.90 -162.54 1721.58
65.36 -162.43 1721.82
65.94 -162.39 1721.70
66.29 -162.49 1721.55
66.21 -162.45 1721.60
66.02 -162.35 1721.72
66.13 -162.32 1721.72
66.60 -162.29 1721.77
66.56 -162.27 1721.79
66.23 -162.21 1721.82
66.46 -162.30 1721.73
66.59 -162.44 1721.58
66.89 -162.30 1721.77
67.03 -162.33 1721.75
67.18 -162.29 1721.92
67.42 -162.41 1721.84
67.53 -162.44 1721.83
67.83 -162.59 1721.89
67.71 -162.53 1721.80
67.96 -162.65 1721.82
68.08 -162.57 1721.58
64.77 -162.88 1721.92
65.16 -162.96 1721.73
65.22 -162.66 1721.80
65.18 -162.95 1721.72
64.99 -162.90 1721.82
65.10 -162.98 1721.75
68.54 -162.98 1721.79
68.24 -162.79 1721.81
64.77 -163.35 1721.94
64.75 -163.07 1721.92
65.05 -163.34 1721.75
64.87 -163.26 1721.86
68.88 -163.12 1721.70
69.13 -163.20 1721.59
68.94 -163.11 1721.66
65.17 -163.34 1721.66
65.19 -163.59 1721.68
65.26 -163.70 1721.64
68.76 -163.13 1721.78
69.00 -163.50 1721.78
68.82 -163.20 1721.77
69.24 -163.53 1721.66
69.43 -163.55 1721.55
65.26 -163.80 1721.66
65.14 -164.02 1721.89
65.01 -163.73 1721.84
65.44 -164.14 1721.72
65.37 -164.11 1721.76
65.59 -164.07 1721.56
68.98 -164.09 1721.81
69.12 -164.08 1721.73
69.17 -163.82 1721.74
69.46 -163.76 1721.59
69.32 -163.97 1721.63
65.53 -164.20 1721.70
65.51 -164.32 1721.86
65.84 -164.40 1721.64
65.81 -164.32 1721.57
68.67 -164.36 1721.81
68.79 -164.42 1721.69
68.85 -164.35 1721.71
69.18 -164.16 1721.67
66.19 -164.75 1721.84
65.89 -164.28 1721.47
66.12 -164.67 1721.68
67.80 -164.72 1721.89
67.75 -164.81 1721.75
68.30 -164.60 1721.71
68.38 -164.58 1721.68
68.57 -164.58 1721.56
68.49 -164.46 1721.84
66.50 -164.88 1721.72
66.55 -164.91 1721.54
66.26 -164.78 1721.83
66.90 -164.97 1721.68
66.84 -164.97 1721.68
67.03 -164.97 1721.66
67.09 -164.95 1721.71
67.29 -164.90 1721.77
67.28 -164.93 1721.68
67.17 -164.86 1721.90
67.57 -164.85 1721.76
67.71 -164.84 1721.70
80.42 -220.18 1721.93
80.19 -220.39 1721.96
80.33 -220.64 1721.97
80.49 -220.60 1721.96
80.49 -220.17 1721.93
80.22 -220.72 1722.00
72.38 -226.51 1721.72
72.22 -226.49 1721.79
72.57 -226.41 1721.79
72.68 -226.42 1721.77
72.82 -226.48 1721.76
72.99 -226.46 1721.83
73.27 -226.61 1721.79
73.05 -226.49 1721.81
71.75 -226.57 1721.99
71.92 -226.54 1721.90
72.25 -226.54 1721.73
72.00 -226.64 1721.78
73.28 -226.67 1721.70
73.33 -226.77 1721.53
73.45 -226.70 1721.76
73.72 -226.89 1721.82
73.67 -226.85 1721.76
71.73 -227.11 1721.80
71.89 -227.21 1721.62
72.03 -226.87 1721.63
71.81 -226.94 1721.75
73.82 -226.98 1721.83
74.03 -227.22 1721.69
73.92 -227.14 1721.89
71.74 -227.40 1721.75
71.75 -227.48 1721.74
71.80 -227.62 1721.63
71.84 -227.39 1721.65
74.01 -227.31 1721.90
74.20 -227.58 1721.76
71.72 -228.02 1721.83
71.78 -228.01 1721.70
71.78 -227.78 1721.65
74.28 -227.82 1721.71
74.43 -228.05 1721.53
74.18 -227.60 1721.82
71.86 -228.25 1721.69
71.79 -228.06 1721.71
74.18 -228.07 1721.91
74.29 -228.06 1721.74
74.31 -228.36 1721.76
71.88 -228.38 1721.75
74.41 -228.29 1721.60
74.42 -228.33 1721.60
74.40 -228.50 1721.65
72.06 -228.78 1721.82
72.12 -228.89 1721.67
74.34 -228.82 1721.72
74.20 -228.72 1721.88
72.38 -229.24 1721.75
72.32 -229.14 1721.86
74.35 -229.14 1721.62
74.39 -229.10 1721.59
74.17 -229.09 1721.85
74.23 -229.11 1721.77
74.16 -229.36 1721.72
74.14 -229.32 1721.75
72.61 -229.48 1721.57
72.44 -229.34 1721.64
72.66 -229.45 1721.82
72.76 -229.57 1721.60
73.22 -229.68 1721.73
73.70 -229.59 1721.81
73.61 -229.61 1721.82
73.42 -229.75 1721.61
73.93 -229.58 1721.73
74.27 -229.42 1721.58
64.57 -162.19 1722.13
65.19 -162.28 1721.94
65.25 -162.36 1721.88
65.20 -162.18 1722.01
65.14 -162.17 1722.02
64.92 -161.95 1722.17
64.87 -162.22 1722.04
64.96 -162.29 1721.99
65.41 -161.90 1722.18
65.40 -162.24 1721.95
65.37 -161.76 1722.28
65.78 -162.04 1722.03
65.31 -161.94 1722.17
66.02 -162.08 1721.96
65.56 -162.04 1722.06
65.75 -161.75 1722.28
65.64 -161.74 1722.29
65.93 -161.82 1722.22
65.90 -161.76 1722.28
66.22 -161.98 1722.12
66.52 -162.03 1722.15
66.64 -162.12 1722.01
66.50 -162.13 1721.98
66.73 -162.12 1722.06
66.70 -162.12 1722.04
67.18 -162.28 1721.95
64.56 -162.57 1722.05
64.66 -162.44 1722.04
64.64 -162.56 1722.03
64.43 -162.41 1722.12
64.71 -162.59 1722.00
64.84 -162.67 1721.94
64.83 -162.54 1721.97
67.33 -162.32 1722.05
67.47 -162.39 1722.02
67.77 -162.56 1721.91
64.65 -162.90 1721.97
64.37 -162.85 1722.09
64.34 -162.73 1722.11
67.92 -162.86 1722.19
67.90 -162.74 1722.08
68.06 -162.87 1722.07
68.06 -162.78 1721.96
64.34 -163.33 1722.14
64.12 -163.13 1722.21
64.54 -163.13 1722.03
64.64 -163.06 1721.98
64.30 -163.24 1722.14
64.34 -163.12 1722.11
64.39 -162.95 1722.08
68.17 -163.17 1722.21
68.26 -163.05 1722.10
68.41 -163.19 1722.09
68.57 -163.22 1721.98
68.18 -162.79 1721.87
68.30 -162.89 1721.89
64.34 -163.58 1722.22
64.62 -163.52 1722.03
64.67 -163.51 1722.00
68.43 -163.35 1722.14
68.57 -163.38 1722.01
68.82 -163.50 1721.88
68.88 -163.57 1721.87
68.67 -163.52 1721.97
68.83 -163.65 1721.93
68.81 -163.49 1721.88
64.61 -164.00 1722.30
64.61 -164.05 1722.34
64.87 -164.09 1722.15
64.82 -164.10 1722.21
65.05 -164.25 1722.22
64.86 -163.83 1722.02
64.84 -163.69 1721.96
64.85 -163.65 1721.94
64.97 -164.02 1722.03
68.54 -163.83 1722.11
68.81 -164.11 1721.90
68.76 -163.96 1721.95
68.75 -163.86 1721.97
68.66 -163.85 1722.03
65.33 -164.23 1721.92
65.18 -164.13 1721.95
68.27 -164.32 1722.14
68.51 -164.23 1722.03
65.77 -164.58 1722.05
65.29 -164.38 1722.19
65.40 -164.42 1722.16
66.04 -164.70 1722.16
65.89 -164.62 1721.97
65.85 -164.62 1722.06
66.28 -164.76 1722.20
67.47 -164.67 1722.14
67.76 -164.67 1721.99
67.88 -164.52 1722.13
67.93 -164.51 1722.11
68.24 -164.33 1722.16
68.20 -164.53 1721.92
66.44 -164.84 1721.97
66.46 -164.84 1722.00
66.68 -164.89 1721.89
66.55 -164.83 1722.06
67.24 -164.72 1722.16
80.08 -219.16 1722.18
80.09 -219.11 1722.24
80.19 -219.11 1722.19
80.46 -219.29 1722.10
80.66 -219.10 1722.18
80.68 -219.33 1722.11
80.56 -219.33 1722.09
79.88 -219.29 1722.19
79.76 -219.60 1722.18
80.16 -219.42 1722.05
80.68 -219.68 1722.04
80.72 -219.71 1722.04
80.83 -219.38 1722.13
80.88 -219.51 1722.15
79.94 -219.61 1722.04
79.90 -219.63 1722.06
79.81 -219.82 1722.11
80.31 -219.74 1721.98
80.27 -219.66 1722.00
80.01 -219.60 1722.03
80.04 -219.81 1721.99
80.69 -220.03 1721.99
80.47 -219.65 1722.01
80.56 -219.71 1722.01
80.50 -219.91 1721.97
80.90 -219.83 1722.12
80.88 -219.97 1722.08
79.91 -220.19 1722.03
79.84 -220.15 1722.06
79.96 -220.31 1722.01
80.03 -220.09 1721.98
80.34 -220.06 1721.94
80.68 -220.34 1721.96
80.88 -220.18 1722.06
80.81 -220.20 1722.00
80.04 -220.43 1721.98
79.81 -220.56 1722.17
80.60 -220.65 1722.02
80.81 -220.45 1722.03
80.09 -220.98 1722.15
80.10 -220.80 1722.03
80.68 -220.77 1722.13
80.28 -220.94 1722.05
80.20 -221.08 1722.17
72.20 -226.23 1722.09
72.12 -226.21 1722.15
72.55 -226.14 1722.19
71.74 -226.31 1722.18
71.91 -226.42 1722.03
72.00 -226.52 1721.86
72.11 -226.26 1722.09
72.21 -226.37 1721.93
72.45 -226.29 1721.93
72.81 -226.30 1721.99
72.99 -226.29 1722.21
72.88 -226.30 1722.03
73.18 -226.40 1722.17
73.12 -226.46 1721.93
73.08 -226.37 1722.11
73.38 -226.56 1721.99
71.51 -226.75 1722.15
71.61 -226.63 1722.10
71.64 -226.74 1722.01
73.65 -226.80 1721.99
73.59 -226.74 1721.99
73.72 -226.91 1722.18
71.43 -226.87 1722.18
71.48 -227.21 1722.07
71.67 -226.95 1721.90
71.52 -227.09 1722.03
73.79 -227.03 1722.08
73.83 -227.08 1722.04
71.48 -227.49 1722.07
71.50 -227.50 1722.04
71.35 -227.31 1722.27
73.98 -227.39 1721.99
73.91 -227.45 1722.13
71.59 -227.76 1721.99
71.55 -227.87 1722.15
71.65 -227.81 1721.89
73.97 -227.89 1722.13
73.99 -227.92 1722.11
73.98 -227.71 1722.11
73.99 -227.66 1722.09
71.62 -228.02 1722.10
71.75 -228.27 1722.11
73.84 -228.45 1722.23
73.84 -228.44 1722.24
74.02 -228.26 1722.06
73.95 -228.51 1722.12
74.23 -228.49 1721.87
74.21 -228.50 1721.90
71.94 -228.56 1721.84
71.76 -228.30 1722.14
72.12 -228.84 1722.04
72.09 -228.82 1721.92
72.27 -228.94 1722.16
72.36 -228.91 1722.34
72.14 -228.73 1722.24
73.81 -229.11 1722.16
73.83 -228.88 1722.18
74.05 -228.77 1722.01
74.19 -228.69 1721.90
72.29 -229.04 1722.02
72.44 -229.23 1721.98
72.52 -229.17 1722.15
73.89 -229.22 1722.07
73.93 -229.37 1721.90
72.62 -229.31 1722.05
72.84 -229.54 1721.83
73.10 -229.50 1722.01
72.85 -229.40 1722.07
73.23 -229.56 1721.93
73.22 -229.54 1721.97
73.53 -229.41 1722.09
73.71 -229.40 1722.04
73.56 -229.55 1721.92
73.62 -229.55 1721.90
64.81 -161.92 1722.20
64.95 -161.86 1722.23
64.88 -161.90 1722.21
64.41 -161.75 1722.39
64.13 -161.79 1722.40
64.46 -161.86 1722.31
64.47 -161.87 1722.30
65.67 -161.68 1722.35
65.91 -161.69 1722.43
65.90 -161.72 1722.36
66.43 -161.91 1722.44
66.36 -161.91 1722.28
66.61 -162.00 1722.38
63.32 -162.14 1722.52
63.49 -162.12 1722.46
63.59 -161.73 1722.55
63.58 -161.73 1722.55
63.45 -161.87 1722.53
63.81 -162.12 1722.38
63.91 -162.17 1722.33
63.88 -161.93 1722.42
63.95 -161.84 1722.43
64.26 -161.86 1722.34
64.29 -162.01 1722.28
64.48 -161.94 1722.26
64.16 -162.18 1722.26
66.98 -162.15 1722.23
67.21 -162.31 1722.35
67.31 -162.31 1722.18
63.25 -162.38 1722.52
63.58 -162.22 1722.42
63.55 -162.49 1722.41
63.84 -162.56 1722.29
63.98 -162.35 1722.28
63.76 -162.38 1722.33
64.30 -162.46 1722.15
64.24 -162.47 1722.17
64.01 -162.51 1722.24
67.42 -162.57 1722.41
67.41 -162.40 1722.26
63.76 -162.74 1722.32
63.81 -162.70 1722.30
63.64 -163.00 1722.41
63.57 -162.89 1722.42
63.50 -162.87 1722.45
63.96 -162.60 1722.25
64.21 -162.61 1722.17
67.58 -162.71 1722.39
63.89 -163.17 1722.35
63.62 -163.21 1722.48
63.84 -163.13 1722.35
63.91 -163.31 1722.37
63.82 -163.39 1722.43
67.60 -162.85 1722.45
67.68 -163.00 1722.45
67.95 -163.27 1722.41
67.89 -163.03 1722.32
67.76 -163.15 1722.47
64.10 -163.51 1722.33
64.09 -163.63 1722.38
64.23 -163.59 1722.29
67.78 -163.29 1722.52
68.06 -163.31 1722.35
68.01 -163.58 1722.42
68.09 -163.51 1722.36
68.02 -163.70 1722.43
64.36 -163.69 1722.26
64.48 -163.92 1722.33
68.24 -163.78 1722.29
68.18 -163.93 1722.30
68.16 -163.86 1722.32
68.49 -163.88 1722.13
68.10 -164.13 1722.32
68.31 -163.93 1722.22
65.10 -164.34 1722.30
64.87 -164.31 1722.45
65.10 -164.42 1722.42
67.82 -164.32 1722.35
67.92 -164.35 1722.27
68.24 -164.21 1722.21
68.05 -164.27 1722.25
65.57 -164.56 1722.32
65.48 -164.51 1722.29
65.51 -164.51 1722.25
65.93 -164.67 1722.41
65.77 -164.60 1722.23
66.38 -164.71 1722.43
66.33 -164.76 1722.25
66.84 -164.69 1722.35
66.62 -164.70 1722.42
66.80 -164.78 1722.21
66.56 -164.75 1722.28
66.85 -164.82 1722.11
66.89 -164.63 1722.44
67.13 -164.72 1722.20
67.09 -164.63 1722.37
67.60 -164.45 1722.34
67.34 -164.52 1722.39
67.28 -164.60 1722.32
67.76 -164.40 1722.31
80.20 -218.79 1722.44
80.14 -218.88 1722.38
80.39 -218.88 1722.35
80.37 -218.83 1722.39
81.01 -218.84 1722.48
79.68 -219.13 1722.43
79.76 -219.11 1722.40
79.94 -218.88 1722.44
79.84 -219.19 1722.30
80.47 -218.99 1722.26
80.66 -218.98 1722.27
81.05 -219.23 1722.31
80.96 -219.07 1722.30
80.88 -218.96 1722.35
80.78 -219.02 1722.27
81.10 -219.12 1722.41
79.66 -219.40 1722.38
79.57 -219.63 1722.42
79.60 -219.59 1722.39
81.08 -219.52 1722.27
81.16 -219.54 1722.36
79.55 -219.88 1722.42
79.54 -219.81 1722.44
79.73 -220.04 1722.15
81.24 -219.75 1722.45
81.11 -219.72 1722.28
79.60 -220.33 1722.45
79.74 -220.40 1722.20
79.70 -220.16 1722.21
81.18 -220.06 1722.38
81.05 -220.30 1722.25
79.72 -220.64 1722.44
79.77 -220.71 1722.40
80.88 -220.63 1722.22
81.01 -220.41 1722.24
79.91 -220.91 1722.37
80.10 -221.07 1722.25
80.58 -220.84 1722.58
80.56 -220.91 1722.31
80.79 -220.73 1722.24
80.61 -220.88 1722.35
80.67 -220.81 1722.51
80.16 -221.09 1722.23
80.38 -221.07 1722.20
72.00 -226.07 1722.46
71.85 -226.19 1722.32
72.38 -226.04 1722.42
72.26 -226.11 1722.30
72.59 -226.06 1722.45
72.66 -226.12 1722.30
72.83 -226.13 1722.47
72.77 -226.16 1722.26
71.47 -226.47 1722.33
71.66 -226.21 1722.44
71.66 -226.29 1722.31
73.27 -226.38 1722.42
71.43 -226.70 1722.28
71.27 -226.82 1722.47
71.31 -226.72 1722.43
73.57 -226.68 1722.26
73.55 -226.68 1722.52
71.27 -227.30 1722.40
73.65 -226.93 1722.43
73.69 -227.19 1722.43
71.30 -227.54 1722.42
73.77 -227.46 1722.35
73.68 -227.54 1722.46
73.89 -227.50 1722.19
73.78 -227.14 1722.23
73.75 -227.07 1722.25
71.46 -227.87 1722.34
71.43 -227.68 1722.23
73.87 -227.75 1722.23
73.84 -227.97 1722.27
71.62 -228.11 1722.34
71.67 -228.18 1722.34
71.59 -228.16 1722.57
71.53 -227.97 1722.29
73.64 -227.92 1722.50
73.60 -228.29 1722.47
71.87 -228.46 1722.23
71.93 -228.52 1722.20
71.90 -228.50 1722.36
71.92 -228.45 1722.72
71.90 -228.45 1722.65
73.78 -228.34 1722.31
73.72 -228.38 1722.35
73.64 -228.54 1722.39
73.52 -228.39 1722.52
72.14 -228.70 1722.34
72.25 -228.75 1722.47
72.43 -228.89 1722.43
72.68 -228.94 1722.51
72.71 -229.03 1722.44
73.35 -228.90 1722.43
73.61 -228.84 1722.30
73.43 -228.92 1722.39
73.69 -229.06 1722.22
73.60 -228.93 1722.27
72.59 -229.15 1722.24
72.94 -229.00 1722.48
72.77 -229.21 1722.28
73.08 -229.07 1722.42
73.13 -229.09 1722.40
73.07 -229.22 1722.32
73.43 -229.27 1722.20
73.54 -229.38 1722.12
73.45 -229.12 1722.30
72.89 -229.33 1722.19
63.20 -161.17 1722.79
63.11 -161.10 1722.83
63.46 -161.18 1722.77
63.32 -161.12 1722.80
63.40 -161.29 1722.74
63.71 -161.24 1722.72
63.48 -161.48 1722.64
63.65 -161.47 1722.62
63.98 -161.25 1722.71
63.91 -161.14 1722.77
63.82 -161.52 1722.58
64.36 -161.20 1722.76
64.56 -161.39 1722.61
64.46 -161.46 1722.54
64.60 -161.21 1722.81
64.71 -161.21 1722.85
62.88 -161.30 1722.81
64.29 -161.55 1722.51
64.34 -161.53 1722.52
64.86 -161.34 1722.76
64.98 -161.33 1722.80
65.28 -161.67 1722.37
64.78 -161.51 1722.54
64.87 -161.53 1722.52
64.92 -161.56 1722.48
65.26 -161.51 1722.62
65.39 -161.65 1722.39
65.58 -161.56 1722.54
63.02 -161.62 1722.73
63.04 -161.58 1722.72
63.32 -161.82 1722.58
63.37 -161.60 1722.62
63.32 -161.51 1722.66
62.96 -161.93 1722.70
63.19 -161.68 1722.66
64.06 -161.74 1722.44
64.07 -161.55 1722.53
65.87 -161.65 1722.62
66.02 -161.72 1722.57
66.22 -161.83 1722.60
62.84 -162.09 1722.75
63.07 -162.38 1722.61
62.88 -162.23 1722.72
63.08 -162.13 1722.62
63.18 -162.13 1722.57
66.53 -162.01 1722.59
66.66 -162.11 1722.61
66.59 -162.00 1722.46
66.99 -162.21 1722.43
67.02 -162.28 1722.51
63.01 -162.61 1722.66
62.96 -162.71 1722.70
63.47 -162.69 1722.43
63.34 -162.63 1722.49
67.04 -162.54 1722.71
67.42 -162.67 1722.50
67.24 -162.57 1722.56
67.12 -162.49 1722.60
67.04 -162.30 1722.52
67.09 -162.31 1722.48
63.34 -162.85 1722.52
63.20 -163.01 1722.64
63.09 -163.00 1722.69
63.38 -163.20 1722.59
63.27 -163.19 1722.65
63.10 -163.07 1722.71
63.50 -163.41 1722.60
63.48 -163.11 1722.51
67.18 -163.06 1722.89
67.46 -163.18 1722.71
67.40 -163.06 1722.72
67.21 -162.88 1722.80
67.42 -162.95 1722.64
67.36 -162.81 1722.63
63.21 -163.46 1722.78
63.35 -163.75 1722.82
63.73 -163.72 1722.61
63.47 -163.55 1722.67
63.58 -163.71 1722.68
63.93 -163.74 1722.52
63.93 -163.76 1722.53
63.77 -163.76 1722.61
64.01 -163.78 1722.50
67.49 -163.35 1722.71
67.43 -163.53 1722.78
67.65 -163.50 1722.63
67.79 -163.64 1722.56
67.53 -163.49 1722.70
67.62 -163.35 1722.62
63.48 -163.82 1722.78
63.55 -163.90 1722.80
64.20 -163.91 1722.47
64.54 -164.04 1722.37
64.43 -164.07 1722.44
64.20 -164.09 1722.58
67.24 -164.14 1722.77
67.16 -163.85 1722.94
67.64 -163.83 1722.65
67.71 -163.87 1722.60
67.27 -163.75 1722.91
67.93 -163.94 1722.45
67.97 -163.99 1722.42
64.31 -164.16 1722.57
64.35 -164.17 1722.57
64.47 -164.15 1722.49
64.44 -164.17 1722.52
64.77 -164.45 1722.65
64.72 -164.44 1722.67
64.84 -164.39 1722.55
64.99 -164.52 1722.68
66.86 -164.36 1722.82
67.43 -164.24 1722.61
67.61 -164.27 1722.48
67.37 -164.32 1722.57
67.51 -164.31 1722.51
67.78 -164.13 1722.48
65.27 -164.57 1722.60
65.28 -164.53 1722.53
65.06 -164.49 1722.58
65.56 -164.64 1722.79
65.67 -164.64 1722.57
65.87 -164.65 1722.88
65.94 -164.67 1722.73
65.84 -164.66 1722.79
66.30 -164.60 1722.76
66.40 -164.65 1722.62
66.19 -164.64 1722.73
66.56 -164.56 1722.72
66.54 -164.57 1722.71
66.63 -164.43 1722.87
66.78 -164.49 1722.70
67.03 -164.43 1722.65
80.29 -218.54 1722.68
80.42 -218.48 1722.75
79.92 -218.68 1722.66
79.86 -218.71 1722.66
79.65 -218.96 1722.58
79.57 -218.99 1722.66
79.97 -218.59 1722.73
80.40 -218.67 1722.52
80.54 -218.58 1722.63
80.87 -218.69 1722.65
80.91 -218.76 1722.57
81.10 -218.85 1722.59
81.08 -218.72 1722.75
79.54 -219.18 1722.58
81.33 -219.08 1722.74
81.27 -219.21 1722.59
79.42 -219.61 1722.73
79.38 -219.52 1722.79
81.36 -219.63 1722.81
81.36 -219.70 1722.84
81.27 -219.49 1722.54
79.53 -219.72 1722.48
79.48 -219.68 1722.59
81.31 -219.86 1722.67
81.27 -219.95 1722.55
79.57 -220.30 1722.54
79.47 -220.04 1722.72
81.23 -220.13 1722.55
81.18 -220.23 1722.67
79.66 -220.54 1722.59
79.57 -220.37 1722.69
80.97 -220.49 1722.79
80.87 -220.53 1723.01
80.90 -220.52 1722.95
80.81 -220.69 1722.58
80.99 -220.51 1722.67
81.00 -220.53 1722.52
79.83 -220.78 1722.53
79.80 -220.68 1722.73
80.14 -220.86 1722.73
80.14 -220.96 1722.51
80.48 -220.86 1722.65
80.31 -220.90 1722.66
71.64 -226.16 1722.53
71.50 -226.17 1722.65
71.46 -226.16 1722.69
71.87 -226.04 1722.59
71.76 -226.05 1722.58
72.07 -225.98 1722.65
72.22 -225.97 1722.63
72.32 -225.99 1722.59
72.72 -226.06 1722.51
72.57 -225.99 1722.68
72.86 -226.12 1722.61
73.07 -226.22 1722.67
73.15 -226.28 1722.51
73.13 -226.27 1722.67
72.92 -226.11 1722.92
71.38 -226.35 1722.58
71.28 -226.45 1722.65
71.27 -226.59 1722.56
73.21 -226.34 1722.72
73.30 -226.38 1722.57
71.22 -226.80 1722.56
71.21 -226.70 1722.63
71.13 -226.66 1722.77
73.58 -226.85 1722.58
73.48 -226.58 1722.71
71.21 -227.07 1722.52
71.14 -226.99 1722.67
73.59 -226.96 1722.62
73.57 -227.17 1722.66
71.21 -227.51 1722.65
71.27 -227.44 1722.45
71.13 -227.29 1722.71
73.64 -227.55 1722.51
73.71 -227.28 1722.42
73.51 -227.70 1722.68
73.39 -227.74 1722.81
73.43 -227.57 1722.80
71.24 -227.69 1722.71
71.33 -227.76 1722.52
73.49 -227.90 1722.67
71.67 -228.25 1722.54
71.52 -228.13 1722.71
73.28 -228.34 1722.72
73.50 -228.02 1722.62
71.73 -228.33 1722.55
71.80 -228.37 1722.59
72.10 -228.60 1722.63
72.28 -228.56 1722.92
72.17 -228.51 1722.94
72.41 -228.64 1722.81
72.99 -228.60 1722.73
72.95 -228.60 1722.75
73.29 -228.53 1722.62
73.45 -228.41 1722.56
72.29 -228.74 1722.54
72.77 -228.70 1722.73
72.49 -228.79 1722.60
72.92 -228.73 1722.69
72.94 -228.76 1722.66
72.85 -228.76 1722.68
73.26 -228.80 1722.51
62.75 -160.79 1723.06
62.99 -160.81 1722.92
63.16 -160.71 1723.00
63.43 -160.66 1723.08
63.30 -160.69 1723.05
63.65 -160.77 1723.02
63.61 -160.83 1722.97
63.76 -160.76 1723.03
63.86 -160.86 1722.98
63.92 -161.05 1722.83
64.14 -161.09 1722.82
62.59 -161.02 1723.03
62.81 -161.00 1722.91
62.50 -161.29 1723.00
62.55 -161.11 1723.03
62.56 -161.33 1722.96
63.12 -160.95 1722.87
63.17 -160.97 1722.86
64.30 -161.13 1722.80
64.52 -161.05 1722.98
64.70 -161.14 1722.96
64.85 -161.16 1723.05
64.78 -161.12 1723.05
62.76 -161.38 1722.84
64.94 -161.27 1722.89
65.28 -161.39 1722.99
65.51 -161.49 1723.04
65.17 -161.41 1722.78
65.32 -161.45 1722.85
65.54 -161.51 1722.90
62.75 -161.87 1722.80
62.43 -161.83 1723.00
62.48 -161.75 1722.96
62.59 -161.75 1722.89
65.59 -161.53 1723.01
65.93 -161.73 1722.97
66.10 -161.83 1722.89
66.14 -161.83 1722.81
62.73 -161.98 1722.82
62.43 -162.13 1723.07
62.44 -162.20 1723.09
62.68 -162.37 1722.89
62.71 -162.05 1722.85
66.23 -161.96 1722.91
66.43 -162.04 1722.80
66.51 -162.17 1722.93
66.22 -161.86 1722.77
62.79 -162.56 1722.81
62.54 -162.50 1723.05
62.71 -162.53 1722.88
66.71 -162.53 1723.03
66.83 -162.45 1722.82
66.56 -162.36 1723.06
66.80 -162.48 1722.89
66.81 -162.31 1722.73
62.88 -162.80 1722.77
62.89 -163.05 1722.86
62.93 -163.16 1722.87
62.79 -163.16 1722.97
62.78 -163.35 1723.02
66.98 -163.11 1723.09
66.95 -163.02 1723.09
67.27 -163.27 1722.88
67.14 -163.16 1722.96
63.03 -163.52 1722.91
62.95 -163.37 1722.91
62.70 -163.80 1723.26
62.74 -163.52 1723.12
63.04 -163.46 1722.88
63.18 -163.71 1722.90
67.08 -163.33 1723.05
62.97 -163.77 1723.05
62.74 -163.81 1723.25
62.81 -163.85 1723.23
63.30 -163.95 1722.97
63.15 -164.02 1723.11
63.20 -164.00 1723.07
63.56 -163.97 1722.84
63.82 -164.13 1722.82
63.50 -164.14 1723.00
63.37 -164.07 1723.02
66.88 -164.10 1723.04
67.14 -164.10 1722.85
64.05 -164.29 1722.83
64.22 -164.38 1722.84
64.19 -164.54 1723.01
64.64 -164.51 1722.81
64.63 -164.61 1723.00
64.56 -164.64 1723.06
66.11 -164.42 1723.28
66.42 -164.44 1722.99
66.38 -164.41 1723.08
66.75 -164.22 1723.04
66.93 -164.28 1722.85
63.85 -164.49 1723.08
63.84 -164.55 1723.14
63.83 -164.49 1723.10
63.68 -164.37 1723.07
64.20 -164.57 1723.05
64.00 -164.54 1723.07
65.07 -164.66 1723.06
64.81 -164.64 1722.97
65.23 -164.67 1723.09
65.36 -164.66 1722.96
65.17 -164.64 1722.93
65.81 -164.61 1723.05
65.87 -164.63 1722.95
66.20 -164.56 1722.93
66.75 -164.39 1722.86
79.82 -218.47 1723.02
79.74 -218.51 1723.03
80.36 -218.35 1722.96
80.31 -218.37 1722.92
80.12 -218.47 1722.83
80.60 -218.33 1722.97
80.90 -218.39 1723.05
80.88 -218.37 1723.06
80.91 -218.43 1723.00
81.14 -218.54 1723.02
81.20 -218.56 1723.07
79.50 -218.95 1722.79
79.63 -218.74 1722.83
79.59 -218.73 1722.90
79.74 -218.70 1722.77
80.80 -218.48 1722.90
80.69 -218.41 1722.91
81.19 -218.78 1722.84
81.29 -218.91 1722.81
81.44 -218.92 1723.12
79.37 -219.24 1722.83
79.36 -218.91 1723.03
81.34 -219.07 1722.77
81.42 -219.15 1722.93
79.29 -219.50 1722.99
79.31 -219.33 1722.92
81.41 -219.52 1722.99
81.38 -219.67 1723.06
81.33 -219.80 1723.11
81.44 -219.42 1723.08
79.40 -219.84 1722.89
79.34 -219.73 1722.99
79.38 -219.64 1722.80
81.29 -219.99 1722.99
81.32 -219.88 1722.80
79.46 -220.03 1722.77
79.44 -220.09 1723.03
79.55 -220.28 1723.00
81.08 -220.33 1723.05
81.25 -220.12 1722.82
81.26 -220.09 1722.82
81.19 -220.19 1723.01
79.64 -220.45 1722.90
79.69 -220.50 1722.98
80.62 -220.74 1722.86
80.71 -220.62 1723.11
79.87 -220.72 1722.77
80.20 -220.79 1722.90
80.30 -220.77 1722.98
80.03 -220.83 1722.74
80.56 -220.78 1722.78
71.12 -225.62 1723.22
70.91 -225.58 1723.28
71.20 -225.87 1723.03
71.57 -225.72 1723.08
71.50 -225.83 1722.99
71.68 -225.81 1722.95
71.87 -225.80 1723.02
71.99 -225.88 1722.87
72.22 -225.90 1722.87
72.17 -225.82 1723.06
70.88 -226.23 1723.06
70.84 -226.17 1723.10
71.11 -226.00 1723.01
71.38 -226.01 1722.85
71.39 -226.13 1722.75
71.32 -226.09 1722.84
72.48 -225.90 1723.06
72.42 -225.91 1723.01
72.51 -225.95 1722.83
70.73 -226.33 1723.14
71.04 -226.45 1722.92
71.02 -226.43 1722.95
71.12 -226.50 1722.84
73.31 -226.49 1723.01
73.40 -226.58 1722.94
70.90 -226.61 1723.06
71.04 -226.70 1722.91
73.42 -226.67 1722.94
73.46 -226.80 1722.88
70.99 -227.16 1722.99
71.05 -227.24 1722.88
73.34 -227.29 1723.03
73.43 -227.03 1722.94
71.02 -227.47 1723.07
71.05 -227.46 1722.99
71.11 -227.33 1722.77
73.41 -227.38 1722.89
71.20 -227.78 1722.99
71.13 -227.64 1722.93
71.34 -227.88 1722.73
71.38 -227.94 1722.69
71.44 -228.11 1723.00
71.49 -228.10 1722.75
71.42 -228.03 1722.79
72.92 -228.20 1723.04
73.16 -228.06 1722.93
73.25 -228.10 1722.84
73.26 -227.97 1722.90
71.94 -228.46 1723.08
71.75 -228.37 1722.98
72.12 -228.50 1722.99
72.55 -228.54 1722.97
72.64 -228.57 1722.91
72.86 -228.38 1722.98
72.80 -228.46 1722.95
62.80 -160.58 1723.42
63.09 -160.61 1723.15
63.25 -160.46 1723.38
63.15 -160.44 1723.49
63.11 -160.53 1723.34
63.53 -160.46 1723.34
63.65 -160.60 1723.18
63.54 -160.59 1723.17
63.86 -160.66 1723.18
63.83 -160.68 1723.15
62.13 -160.97 1723.44
62.23 -160.91 1723.44
62.66 -160.61 1723.52
62.62 -160.80 1723.23
62.65 -160.66 1723.43
62.73 -160.60 1723.43
62.87 -160.68 1723.07
63.80 -160.71 1723.09
64.12 -160.66 1723.32
64.36 -160.91 1723.06
61.92 -161.23 1723.39
62.12 -161.06 1723.32
64.44 -160.93 1723.08
64.63 -160.97 1723.19
64.72 -160.98 1723.31
64.72 -161.00 1723.25
64.99 -161.12 1723.33
61.92 -161.34 1723.33
61.91 -161.56 1723.39
62.47 -161.33 1723.01
62.34 -161.30 1723.10
62.29 -161.51 1723.07
62.15 -161.15 1723.21
65.06 -161.18 1723.27
65.27 -161.29 1723.41
65.34 -161.38 1723.30
65.45 -161.45 1723.10
62.35 -161.57 1723.03
62.36 -161.75 1723.04
62.22 -161.90 1723.21
62.05 -161.80 1723.36
62.02 -161.60 1723.29
65.80 -161.71 1723.21
65.84 -161.69 1723.05
65.64 -161.60 1723.21
65.62 -161.58 1723.31
65.90 -161.76 1723.16
66.04 -161.92 1723.20
66.11 -162.03 1723.29
62.28 -162.07 1723.20
62.19 -161.98 1723.27
62.38 -162.77 1723.28
62.37 -162.81 1723.30
62.46 -162.75 1723.18
66.66 -162.67 1723.18
66.65 -162.61 1723.15
66.53 -162.39 1723.12
66.81 -162.71 1723.06
66.37 -162.30 1723.20
66.45 -162.39 1723.19
62.53 -162.95 1723.16
62.65 -163.19 1723.09
62.58 -162.96 1723.11
62.36 -163.29 1723.37
62.34 -163.13 1723.37
66.37 -162.92 1723.57
66.36 -162.75 1723.52
66.49 -162.74 1723.39
66.58 -162.75 1723.31
66.85 -162.95 1723.16
66.57 -163.32 1723.49
66.79 -163.18 1723.29
66.86 -163.28 1723.24
62.59 -163.62 1723.29
62.42 -163.53 1723.39
62.52 -163.41 1723.27
62.36 -163.75 1723.56
62.41 -163.74 1723.51
66.79 -163.46 1723.30
66.54 -163.40 1723.52
66.82 -163.41 1723.28
62.53 -164.09 1723.67
62.60 -164.12 1723.63
62.46 -163.95 1723.62
62.87 -164.02 1723.32
