29.23 -194.16 1725.13
29.82 -194.12 1725.13
29.68 -193.97 1725.13
29.60 -194.32 1725.13
29.80 -194.41 1725.13
29.18 -193.87 1725.13
30.18 -194.17 1725.14
29.57 -194.01 1725.13
29.18 -194.04 1725.13
29.56 -194.45 1725.13
28.90 -193.91 1725.12
28.96 -193.87 1725.12
29.78 -194.01 1725.13
29.65 -194.29 1725.13
30.01 -194.54 1725.14
31.05 -194.44 1725.14
30.67 -194.13 1725.14
30.17 -194.53 1725.14
29.94 -194.43 1725.14
29.88 -194.45 1725.14
30.21 -194.39 1725.14
30.24 -194.45 1725.14
30.28 -194.51 1725.14
30.85 -193.74 1725.14
30.85 -194.10 1725.14
30.58 -193.99 1725.14
30.98 -194.11 1725.14
30.88 -194.23 1725.14
31.04 -194.33 1725.14
30.76 -193.91 1725.14
32.17 -194.32 1725.13
32.48 -194.02 1725.13
31.77 -194.30 1725.14
31.74 -194.60 1725.13
31.65 -194.43 1725.14
31.51 -195.29 1725.13
31.75 -194.43 1725.13
31.28 -194.59 1725.14
32.20 -194.14 1725.13
32.33 -194.26 1725.13
31.57 -194.44 1725.14
31.29 -195.19 1725.13
31.86 -194.81 1725.13
31.59 -194.71 1725.13
31.66 -194.46 1725.14
31.78 -194.98 1725.13
31.68 -195.09 1725.13
32.19 -194.19 1725.13
31.64 -194.76 1725.13
31.31 -194.59 1725.14
31.32 -194.58 1725.14
31.32 -194.90 1725.14
31.82 -194.25 1725.13
32.51 -194.16 1725.12
31.83 -194.15 1725.14
33.49 -193.52 1725.12
34.17 -193.26 1725.12
33.88 -193.19 1725.12
34.25 -193.92 1725.12
34.32 -193.74 1725.12
33.78 -193.90 1725.12
33.88 -193.44 1725.12
34.59 -193.57 1725.12
34.14 -192.94 1725.13
34.29 -192.96 1725.13
34.67 -193.08 1725.13
33.68 -193.65 1725.12
34.39 -192.78 1725.13
34.62 -193.05 1725.13
33.83 -193.08 1725.12
34.60 -193.37 1725.12
34.20 -193.18 1725.12
34.21 -192.88 1725.13
34.34 -194.19 1725.12
35.04 -192.77 1725.13
34.47 -193.59 1725.12
33.97 -193.46 1725.12
34.51 -192.74 1725.13
34.10 -192.98 1725.13
33.56 -193.29 1725.12
34.92 -192.98 1725.13
34.82 -192.69 1725.13
33.95 -193.43 1725.12
33.79 -193.52 1725.12
34.80 -192.82 1725.13
33.56 -193.23 1725.12
34.07 -194.06 1725.12
34.15 -192.98 1725.13
34.93 -193.51 1725.11
35.32 -192.90 1725.11
35.39 -192.76 1725.12
35.26 -193.32 1725.10
34.64 -193.73 1725.12
34.90 -193.54 1725.11
35.03 -192.90 1725.13
35.36 -192.95 1725.11
35.07 -193.02 1725.12
34.70 -193.82 1725.12
35.07 -193.53 1725.11
34.68 -193.80 1725.12
37.39 -193.86 1725.14
37.83 -193.72 1725.15
37.63 -194.08 1725.15
37.07 -194.30 1725.14
37.88 -194.08 1725.15
37.36 -194.39 1725.14
37.32 -194.23 1725.14
37.64 -194.12 1725.15
37.43 -193.89 1725.14
38.09 -194.06 1725.15
37.02 -194.34 1725.14
37.24 -194.06 1725.14
38.02 -194.07 1725.15
37.68 -194.15 1725.15
37.65 -193.66 1725.15
37.82 -193.96 1725.15
37.51 -194.07 1725.15
39.48 -193.74 1725.22
38.79 -193.83 1725.19
39.03 -193.64 1725.21
39.48 -193.74 1725.22
38.52 -193.95 1725.17
39.63 -194.11 1725.23
39.88 -194.04 1725.30
39.81 -194.04 1725.28
25.21 -194.25 1725.24
25.34 -194.07 1725.23
25.43 -193.94 1725.22
25.56 -194.29 1725.21
25.14 -194.28 1725.24
25.98 -194.13 1725.18
25.68 -194.13 1725.20
25.93 -194.08 1725.18
26.37 -194.23 1725.15
25.77 -194.75 1725.19
25.84 -194.75 1725.18
26.22 -194.45 1725.16
25.68 -194.46 1725.20
25.86 -194.51 1725.18
25.26 -194.46 1725.23
25.81 -194.36 1725.19
26.10 -194.39 1725.17
26.10 -194.64 1725.16
26.15 -194.70 1725.16
26.75 -194.27 1725.14
27.22 -194.63 1725.14
26.24 -194.96 1725.16
26.56 -194.39 1725.14
27.16 -194.48 1725.14
27.03 -194.70 1725.14
26.19 -194.91 1725.16
27.13 -194.63 1725.14
26.30 -194.78 1725.16
26.62 -194.19 1725.14
26.78 -194.85 1725.15
26.24 -194.85 1725.16
26.96 -194.51 1725.14
26.27 -194.58 1725.15
27.54 -194.58 1725.13
27.36 -194.59 1725.13
33.85 -194.15 1725.12
32.34 -194.89 1725.13
33.89 -194.18 1725.12
33.19 -194.10 1725.12
33.61 -193.89 1725.12
33.94 -194.11 1725.12
32.97 -194.17 1725.12
33.11 -194.75 1725.12
33.67 -194.27 1725.12
31.97 -195.30 1725.13
32.53 -195.05 1725.13
31.70 -195.17 1725.13
32.93 -194.42 1725.12
33.57 -194.26 1725.12
33.38 -194.58 1725.12
33.33 -194.01 1725.12
33.14 -194.78 1725.12
32.51 -194.19 1725.12
33.65 -194.43 1725.12
32.69 -194.58 1725.12
32.98 -193.81 1725.12
33.26 -194.65 1725.12
33.52 -194.65 1725.12
33.79 -194.28 1725.12
33.01 -194.55 1725.12
33.31 -194.33 1725.12
33.53 -193.79 1725.12
33.25 -193.37 1725.12
31.74 -195.39 1725.13
33.94 -194.20 1725.12
31.57 -195.38 1725.13
32.61 -194.19 1725.12
32.47 -194.59 1725.13
33.20 -194.57 1725.12
31.81 -195.17 1725.13
32.48 -194.97 1725.13
32.61 -194.39 1725.12
33.20 -193.51 1725.12
34.14 -194.43 1725.12
31.68 -195.35 1725.13
33.84 -194.35 1725.12
34.02 -194.43 1725.12
33.21 -193.34 1725.12
32.83 -193.98 1725.12
36.48 -194.02 1725.13
37.10 -193.76 1725.14
36.44 -194.52 1725.13
36.25 -194.12 1725.13
36.34 -194.61 1725.13
37.12 -193.76 1725.14
36.56 -194.43 1725.13
36.25 -194.34 1725.13
36.90 -193.76 1725.14
37.02 -193.70 1725.14
36.65 -194.19 1725.13
36.32 -194.11 1725.13
36.32 -194.08 1725.13
36.77 -194.31 1725.13
25.74 -194.98 1725.19
25.45 -194.73 1725.21
24.86 -194.68 1725.27
25.24 -194.78 1725.23
25.49 -194.91 1725.21
25.07 -194.75 1725.25
24.80 -194.75 1725.27
29.79 -194.61 1725.14
30.68 -194.57 1725.14
29.34 -195.00 1725.14
29.98 -194.62 1725.14
29.63 -194.98 1725.14
29.90 -194.91 1725.14
29.66 -194.82 1725.14
29.27 -194.99 1725.14
29.43 -195.04 1725.14
30.37 -194.64 1725.14
30.08 -194.60 1725.14
34.01 -194.64 1725.12
32.67 -195.07 1725.12
33.21 -195.19 1725.12
32.80 -195.17 1725.13
32.05 -195.91 1725.13
32.78 -195.85 1725.13
33.81 -194.90 1725.12
31.88 -195.57 1725.13
32.10 -195.66 1725.13
33.33 -195.05 1725.12
31.91 -195.73 1725.13
32.05 -195.68 1725.13
33.39 -194.93 1725.12
32.99 -195.56 1725.13
31.93 -195.94 1725.13
32.10 -195.79 1725.13
31.59 -195.68 1725.13
32.09 -196.07 1725.13
32.75 -195.84 1725.13
32.05 -195.30 1725.13
33.37 -195.09 1725.12
33.26 -194.99 1725.12
32.33 -195.49 1725.13
31.91 -195.45 1725.13
32.54 -195.18 1725.13
32.65 -195.42 1725.13
32.12 -195.35 1725.13
31.45 -195.55 1725.13
32.41 -196.07 1725.13
33.32 -195.06 1725.12
31.54 -195.66 1725.13
32.88 -195.75 1725.13
32.72 -195.79 1725.13
31.58 -195.49 1725.13
32.13 -195.79 1725.13
32.76 -195.63 1725.13
37.70 -194.82 1725.14
37.84 -194.87 1725.15
37.84 -194.37 1725.15
37.83 -194.75 1725.15
36.78 -194.82 1725.13
37.86 -194.34 1725.15
36.63 -194.86 1725.13
37.48 -195.03 1725.14
37.88 -194.23 1725.15
36.70 -194.87 1725.13
38.02 -194.60 1725.15
37.27 -194.65 1725.14
37.90 -194.67 1725.15
37.44 -194.78 1725.14
37.82 -194.51 1725.15
37.64 -194.41 1725.15
37.42 -194.73 1725.14
37.50 -194.91 1725.14
37.99 -194.88 1725.15
38.52 -194.09 1725.17
38.32 -194.70 1725.17
38.08 -195.04 1725.16
38.58 -194.57 1725.18
39.05 -194.37 1725.20
39.31 -194.58 1725.22
38.71 -194.80 1725.19
38.86 -194.56 1725.20
38.82 -194.42 1725.19
38.50 -194.85 1725.18
38.57 -194.52 1725.18
38.38 -194.08 1725.16
38.36 -194.67 1725.17
38.28 -194.71 1725.16
38.29 -194.81 1725.16
39.15 -194.52 1725.21
38.49 -194.05 1725.17
39.46 -194.11 1725.22
39.24 -193.93 1725.20
39.30 -194.02 1725.21
39.30 -194.01 1725.21
38.60 -194.03 1725.17
38.65 -194.01 1725.17
39.51 -194.20 1725.23
39.89 -194.84 1725.25
39.67 -194.56 1725.24
39.71 -194.72 1725.24
24.85 -195.36 1725.27
25.23 -195.20 1725.24
24.94 -195.26 1725.26
25.21 -195.13 1725.24
25.55 -195.06 1725.21
25.56 -195.00 1725.21
25.32 -195.08 1725.23
26.53 -195.10 1725.16
28.03 -195.15 1725.14
26.91 -195.04 1725.15
28.10 -195.04 1725.13
27.24 -194.86 1725.14
27.60 -195.26 1725.15
28.11 -194.96 1725.13
27.35 -195.13 1725.15
26.69 -195.11 1725.16
27.46 -194.84 1725.14
28.31 -195.11 1725.13
26.31 -195.03 1725.16
28.25 -195.03 1725.13
27.12 -194.83 1725.14
26.99 -194.88 1725.15
28.06 -194.82 1725.13
27.95 -195.17 1725.14
28.68 -194.89 1725.13
29.42 -194.71 1725.13
29.07 -194.79 1725.13
28.58 -195.23 1725.14
28.65 -195.07 1725.13
28.71 -195.24 1725.14
29.45 -194.71 1725.13
28.75 -194.69 1725.13
29.04 -194.75 1725.13
28.84 -194.68 1725.13
28.39 -194.79 1725.13
28.68 -195.02 1725.13
29.05 -194.64 1725.13
31.18 -195.02 1725.14
30.06 -195.01 1725.14
30.82 -195.52 1725.13
31.19 -195.29 1725.13
29.19 -195.38 1725.14
29.54 -195.39 1725.14
29.87 -195.41 1725.14
29.72 -195.06 1725.14
31.18 -195.10 1725.14
30.31 -194.78 1725.14
29.57 -195.40 1725.14
30.90 -195.32 1725.13
30.62 -195.18 1725.14
30.92 -195.21 1725.13
30.64 -195.14 1725.14
30.82 -195.55 1725.13
30.00 -195.13 1725.14
30.58 -195.12 1725.14
30.02 -195.01 1725.14
30.72 -194.68 1725.14
29.24 -195.38 1725.14
30.61 -195.10 1725.14
30.34 -194.81 1725.14
30.45 -195.22 1725.14
31.24 -194.82 1725.14
30.03 -195.12 1725.14
29.07 -195.35 1725.14
30.98 -195.48 1725.13
30.16 -195.07 1725.14
30.48 -195.45 1725.13
30.79 -195.43 1725.13
34.74 -195.88 1725.13
35.78 -195.76 1725.13
35.08 -195.81 1725.13
35.82 -195.88 1725.13
34.99 -195.63 1725.13
36.01 -195.33 1725.13
34.31 -196.07 1725.13
35.26 -195.79 1725.13
35.33 -195.90 1725.13
34.63 -195.90 1725.13
35.40 -195.82 1725.13
35.03 -195.88 1725.13
34.91 -195.76 1725.13
35.02 -196.00 1725.13
35.77 -195.76 1725.13
35.93 -195.34 1725.13
36.09 -195.08 1725.13
35.53 -195.47 1725.13
34.92 -195.99 1725.13
34.74 -196.04 1725.13
34.63 -195.90 1725.13
35.29 -195.14 1725.13
35.53 -195.14 1725.13
35.92 -194.40 1725.13
34.85 -195.55 1725.13
35.67 -194.99 1725.13
36.03 -194.89 1725.13
36.20 -194.70 1725.13
36.24 -194.49 1725.13
35.87 -194.22 1725.13
35.76 -194.71 1725.13
36.02 -194.62 1725.13
35.26 -195.30 1725.13
35.67 -195.21 1725.13
34.94 -195.23 1725.13
35.74 -194.49 1725.13
36.07 -194.75 1725.13
36.33 -194.80 1725.12
34.71 -195.60 1725.13
34.92 -195.46 1725.13
35.96 -194.99 1725.13
35.63 -195.07 1725.13
35.46 -194.71 1725.13
35.29 -195.23 1725.13
36.44 -195.52 1725.13
36.83 -195.60 1725.14
36.64 -195.12 1725.13
36.13 -195.47 1725.13
36.11 -195.41 1725.13
37.13 -195.25 1725.14
37.31 -195.13 1725.14
36.14 -195.79 1725.13
36.28 -195.21 1725.13
36.31 -195.59 1725.13
36.68 -195.08 1725.13
36.79 -195.60 1725.14
36.93 -194.95 1725.13
37.29 -195.34 1725.14
37.51 -195.08 1725.14
36.24 -195.59 1725.13
36.67 -194.93 1725.13
36.75 -195.52 1725.14
36.16 -195.86 1725.14
36.60 -195.32 1725.13
39.47 -195.13 1725.22
38.51 -195.06 1725.18
38.61 -194.89 1725.18
39.05 -194.79 1725.21
39.14 -194.87 1725.21
39.12 -194.98 1725.21
39.21 -194.90 1725.21
38.33 -195.04 1725.17
38.63 -195.02 1725.18
39.09 -195.00 1725.21
39.18 -194.87 1725.21
25.54 -195.72 1725.23
25.83 -195.18 1725.19
25.66 -195.66 1725.21
25.35 -195.33 1725.23
24.75 -195.45 1725.28
25.65 -195.76 1725.22
25.72 -195.87 1725.22
25.79 -195.12 1725.19
25.37 -195.73 1725.24
25.53 -195.65 1725.22
25.72 -195.13 1725.19
25.52 -195.55 1725.22
26.67 -195.31 1725.17
27.19 -195.54 1725.17
26.21 -195.88 1725.21
26.86 -195.41 1725.17
26.38 -195.74 1725.20
26.61 -195.50 1725.18
28.01 -195.35 1725.15
26.85 -195.33 1725.17
25.85 -195.79 1725.21
26.39 -195.38 1725.18
27.29 -195.64 1725.17
26.60 -195.74 1725.19
27.63 -195.31 1725.15
27.77 -195.48 1725.16
26.37 -195.75 1725.20
26.67 -195.14 1725.16
27.99 -195.48 1725.15
26.80 -195.26 1725.16
27.50 -195.45 1725.16
26.39 -195.71 1725.19
26.77 -195.68 1725.19
27.12 -195.23 1725.16
26.65 -195.52 1725.18
26.17 -195.14 1725.17
27.02 -195.27 1725.16
26.11 -195.30 1725.18
26.92 -195.58 1725.18
34.45 -194.41 1725.12
34.25 -194.73 1725.12
34.48 -195.28 1725.13
34.68 -195.51 1725.13
34.94 -194.99 1725.13
34.33 -194.59 1725.12
34.86 -194.28 1725.12
35.31 -194.80 1725.13
34.36 -194.59 1725.12
34.70 -194.49 1725.12
34.82 -195.03 1725.13
34.53 -194.34 1725.12
34.74 -195.34 1725.13
35.23 -194.83 1725.13
34.93 -194.78 1725.13
34.28 -195.31 1725.13
34.35 -194.77 1725.12
34.15 -196.05 1725.13
35.12 -194.89 1725.13
35.38 -194.34 1725.13
35.23 -194.90 1725.13
34.68 -194.59 1725.12
34.36 -194.79 1725.12
34.35 -194.49 1725.12
35.89 -194.15 1725.13
34.79 -194.42 1725.12
34.26 -195.52 1725.13
34.38 -194.99 1725.13
34.49 -194.99 1725.13
34.39 -195.32 1725.13
34.57 -195.43 1725.13
26.76 -196.20 1725.18
27.50 -196.36 1725.14
27.96 -195.59 1725.16
26.82 -195.90 1725.18
26.66 -195.95 1725.19
28.34 -195.70 1725.14
27.27 -195.79 1725.17
28.14 -196.12 1725.13
27.25 -196.17 1725.16
27.13 -195.73 1725.18
26.78 -195.90 1725.19
26.35 -195.96 1725.20
27.64 -196.37 1725.14
26.03 -196.03 1725.21
27.51 -196.00 1725.16
27.33 -195.72 1725.17
26.73 -196.06 1725.18
27.53 -195.71 1725.17
28.07 -196.23 1725.13
28.12 -196.10 1725.13
27.80 -196.36 1725.13
27.63 -196.35 1725.14
26.93 -195.80 1725.18
26.81 -196.17 1725.18
27.74 -196.17 1725.14
27.87 -196.17 1725.14
27.86 -195.64 1725.16
27.84 -195.64 1725.16
33.88 -196.05 1725.13
32.90 -195.99 1725.13
33.32 -195.46 1725.13
34.15 -195.54 1725.13
33.92 -194.91 1725.12
33.42 -196.14 1725.13
33.58 -196.07 1725.13
33.48 -195.89 1725.13
33.59 -195.86 1725.13
33.90 -195.48 1725.13
34.07 -194.77 1725.12
33.76 -195.11 1725.12
33.97 -195.44 1725.13
33.89 -196.10 1725.13
33.08 -195.76 1725.13
33.92 -194.78 1725.12
33.22 -195.57 1725.13
33.81 -195.18 1725.12
32.85 -196.16 1725.13
33.71 -196.03 1725.13
32.73 -196.13 1725.13
33.91 -195.77 1725.13
33.91 -195.78 1725.13
33.87 -195.52 1725.13
33.05 -196.19 1725.13
34.17 -194.79 1725.12
33.43 -195.57 1725.13
34.02 -195.69 1725.13
34.81 -196.17 1725.14
34.39 -196.60 1725.14
35.07 -196.24 1725.14
34.50 -196.56 1725.14
34.25 -196.26 1725.14
34.81 -196.76 1725.15
34.73 -196.31 1725.14
34.32 -196.46 1725.14
35.09 -196.12 1725.14
35.16 -196.52 1725.14
34.55 -196.75 1725.15
35.10 -196.30 1725.14
35.02 -196.62 1725.14
34.72 -196.35 1725.14
34.39 -196.73 1725.15
34.83 -196.49 1725.14
36.44 -196.22 1725.14
37.72 -196.49 1725.15
37.03 -196.33 1725.14
36.13 -196.65 1725.15
36.42 -196.38 1725.14
35.80 -196.64 1725.14
36.73 -196.61 1725.15
36.33 -196.22 1725.14
36.81 -196.27 1725.14
35.93 -196.87 1725.15
36.02 -196.11 1725.14
36.72 -196.51 1725.15
36.14 -196.77 1725.15
36.18 -196.36 1725.14
36.72 -196.69 1725.15
36.89 -196.36 1725.14
36.07 -196.43 1725.14
35.84 -196.39 1725.14
36.76 -196.36 1725.14
36.63 -196.32 1725.14
36.16 -196.19 1725.14
36.83 -196.62 1725.15
36.61 -196.44 1725.14
37.46 -196.12 1725.15
37.60 -195.94 1725.15
36.67 -196.17 1725.14
37.76 -195.98 1725.15
36.82 -195.84 1725.14
37.44 -196.27 1725.15
37.54 -195.88 1725.14
38.01 -196.08 1725.15
37.39 -195.63 1725.14
36.89 -196.07 1725.14
37.80 -195.42 1725.14
37.66 -196.05 1725.15
37.85 -195.51 1725.15
37.31 -196.06 1725.14
36.54 -196.05 1725.14
36.36 -196.05 1725.14
37.35 -196.08 1725.14
37.35 -195.76 1725.14
37.91 -195.46 1725.15
37.85 -195.52 1725.15
37.90 -195.88 1725.15
37.28 -195.77 1725.14
36.34 -195.87 1725.14
37.27 -195.46 1725.14
37.55 -196.32 1725.15
37.09 -196.07 1725.14
37.61 -196.13 1725.15
38.03 -195.93 1725.15
37.62 -196.15 1725.15
37.64 -195.65 1725.14
36.33 -196.03 1725.14
37.27 -196.09 1725.14
38.67 -195.38 1725.18
38.90 -195.49 1725.19
38.84 -195.50 1725.19
38.18 -195.80 1725.15
38.25 -195.90 1725.16
37.96 -195.24 1725.15
38.38 -195.45 1725.17
38.78 -195.32 1725.19
38.16 -195.36 1725.16
38.25 -195.93 1725.16
38.56 -195.44 1725.18
39.07 -195.39 1725.20
38.33 -195.83 1725.16
39.06 -195.35 1725.20
39.40 -195.17 1725.22
38.97 -195.66 1725.19
38.75 -196.01 1725.18
38.36 -195.81 1725.16
38.03 -195.60 1725.15
38.05 -195.27 1725.15
38.96 -195.17 1725.20
38.22 -195.56 1725.16
38.27 -195.17 1725.16
38.28 -195.67 1725.16
38.27 -195.16 1725.16
39.38 -195.61 1725.21
39.71 -195.57 1725.23
39.19 -195.69 1725.20
39.70 -195.51 1725.23
39.58 -195.47 1725.22
39.47 -195.63 1725.22
39.31 -195.45 1725.21
39.07 -195.87 1725.20
39.87 -196.01 1725.27
39.28 -195.96 1725.21
39.13 -196.26 1725.22
39.55 -195.75 1725.22
39.42 -196.15 1725.24
39.76 -196.09 1725.27
39.83 -196.13 1725.28
39.43 -195.92 1725.22
39.84 -196.12 1725.28
39.84 -195.96 1725.27
27.31 -196.37 1725.15
26.79 -196.49 1725.16
26.02 -196.27 1725.20
26.18 -196.37 1725.19
26.58 -196.29 1725.18
25.87 -196.30 1725.20
26.18 -196.17 1725.20
26.07 -196.18 1725.20
25.82 -196.54 1725.20
27.02 -196.52 1725.16
26.23 -196.17 1725.20
27.21 -196.56 1725.15
25.91 -196.05 1725.21
26.27 -196.34 1725.19
26.02 -196.22 1725.20
26.73 -196.50 1725.17
29.99 -195.62 1725.13
30.61 -195.72 1725.13
31.27 -195.59 1725.13
29.44 -195.92 1725.13
28.61 -196.06 1725.13
29.41 -195.72 1725.13
29.89 -195.89 1725.13
29.92 -195.53 1725.13
30.08 -195.82 1725.13
28.69 -196.09 1725.13
30.05 -195.52 1725.13
29.89 -195.58 1725.13
28.74 -195.77 1725.13
28.65 -195.88 1725.13
29.71 -195.99 1725.13
29.66 -195.92 1725.13
28.82 -195.79 1725.13
28.71 -196.13 1725.13
28.74 -195.97 1725.13
29.28 -195.47 1725.14
28.13 -196.34 1725.13
29.08 -195.77 1725.13
29.31 -195.85 1725.13
28.99 -195.66 1725.13
28.34 -195.97 1725.13
29.43 -195.88 1725.13
28.19 -196.27 1725.13
29.55 -195.53 1725.13
28.22 -196.41 1725.12
29.30 -196.11 1725.13
29.52 -195.72 1725.13
30.27 -196.52 1725.12
30.86 -195.98 1725.12
30.19 -196.25 1725.12
29.51 -196.12 1725.13
30.53 -195.93 1725.13
29.96 -196.15 1725.12
30.27 -196.26 1725.12
29.69 -196.31 1725.12
29.92 -196.06 1725.13
29.51 -196.44 1725.12
30.34 -196.64 1725.11
29.21 -196.38 1725.12
29.55 -196.38 1725.12
29.92 -196.25 1725.12
30.16 -195.92 1725.13
29.17 -196.49 1725.12
28.84 -196.40 1725.12
28.56 -196.40 1725.12
30.90 -196.07 1725.12
30.15 -196.73 1725.11
28.91 -196.59 1725.12
30.57 -196.29 1725.12
30.81 -196.22 1725.12
29.61 -196.52 1725.12
29.18 -196.66 1725.12
28.77 -196.63 1725.12
29.11 -196.41 1725.12
30.27 -196.20 1725.12
30.95 -196.08 1725.12
29.69 -196.43 1725.12
30.64 -196.47 1725.12
30.98 -195.73 1725.13
30.10 -196.29 1725.12
28.42 -196.57 1725.12
29.08 -196.45 1725.12
30.96 -196.03 1725.12
29.06 -196.34 1725.12
34.92 -196.73 1725.15
34.98 -196.73 1725.15
35.54 -196.72 1725.14
35.76 -196.27 1725.14
34.96 -196.70 1725.14
35.70 -196.76 1725.15
35.78 -196.19 1725.14
35.40 -196.49 1725.14
34.81 -196.80 1725.15
35.71 -196.41 1725.14
35.34 -196.58 1725.14
36.57 -197.39 1725.14
36.96 -196.89 1725.15
36.44 -197.41 1725.14
36.73 -196.84 1725.15
36.49 -197.37 1725.14
36.60 -197.14 1725.15
36.76 -197.10 1725.15
36.43 -197.30 1725.15
36.05 -197.19 1725.15
36.86 -197.16 1725.15
37.38 -196.71 1725.15
36.86 -196.82 1725.15
36.27 -196.98 1725.15
36.84 -196.98 1725.15
36.10 -197.03 1725.15
37.01 -196.96 1725.15
37.06 -196.77 1725.15
39.84 -196.78 1725.22
38.24 -196.56 1725.15
39.61 -196.57 1725.23
39.02 -196.38 1725.21
39.82 -196.46 1725.25
39.98 -197.10 1725.20
38.53 -196.66 1725.16
39.51 -196.31 1725.25
39.99 -196.39 1725.27
39.37 -196.89 1725.19
39.87 -196.82 1725.22
40.05 -196.69 1725.24
39.42 -196.74 1725.20
39.55 -196.97 1725.19
39.92 -197.18 1725.19
39.24 -196.89 1725.18
39.53 -196.64 1725.22
39.33 -196.97 1725.18
39.83 -196.86 1725.22
39.22 -196.78 1725.19
39.34 -196.33 1725.23
39.41 -196.41 1725.23
40.11 -196.12 1725.30
40.21 -197.10 1725.22
40.20 -196.33 1725.29
40.38 -196.50 1725.30
40.14 -196.31 1725.28
40.18 -196.70 1725.25
40.31 -196.73 1725.27
26.30 -196.92 1725.15
26.34 -196.99 1725.14
26.93 -196.61 1725.15
26.34 -196.71 1725.17
26.40 -196.76 1725.16
26.17 -196.66 1725.18
27.23 -196.65 1725.14
27.28 -196.57 1725.14
26.71 -196.72 1725.15
27.28 -197.10 1725.12
26.79 -196.87 1725.14
27.46 -196.93 1725.12
27.40 -196.77 1725.13
27.75 -196.88 1725.12
27.55 -197.24 1725.11
27.69 -197.06 1725.11
27.77 -196.96 1725.11
27.83 -196.58 1725.12
27.52 -196.76 1725.12
27.32 -196.74 1725.13
27.33 -196.90 1725.12
28.00 -196.92 1725.11
28.40 -196.90 1725.11
28.90 -196.99 1725.11
27.97 -196.74 1725.12
28.25 -196.61 1725.12
28.19 -196.91 1725.11
29.33 -197.06 1725.11
28.57 -196.95 1725.11
27.94 -196.96 1725.11
28.01 -196.93 1725.11
29.32 -196.84 1725.11
29.89 -196.98 1725.11
28.42 -196.88 1725.11
28.23 -196.68 1725.12
28.48 -197.13 1725.11
29.00 -196.81 1725.11
29.76 -196.87 1725.11
28.54 -196.93 1725.11
28.35 -196.97 1725.11
30.78 -196.40 1725.12
31.32 -195.61 1725.13
31.53 -196.01 1725.13
32.29 -196.24 1725.13
31.49 -196.36 1725.12
31.71 -196.02 1725.13
30.54 -196.87 1725.11
31.74 -195.96 1725.13
31.50 -196.02 1725.13
31.12 -196.69 1725.12
30.80 -196.33 1725.12
32.08 -196.38 1725.13
31.62 -196.10 1725.13
30.82 -196.53 1725.12
31.74 -195.85 1725.13
31.48 -196.49 1725.12
32.23 -196.33 1725.13
31.44 -195.67 1725.13
30.75 -196.46 1725.12
32.02 -196.22 1725.13
31.58 -196.49 1725.12
31.17 -196.22 1725.12
31.36 -196.28 1725.12
31.46 -196.25 1725.12
25.18 -197.05 1725.31
25.85 -197.05 1725.21
25.53 -196.92 1725.24
25.23 -197.05 1725.30
25.56 -196.75 1725.21
25.73 -197.08 1725.23
25.45 -197.10 1725.28
25.74 -197.24 1725.24
25.30 -197.21 1725.31
26.83 -197.32 1725.15
26.94 -197.27 1725.14
26.24 -197.41 1725.19
26.77 -197.37 1725.16
26.77 -197.19 1725.14
26.44 -197.13 1725.15
27.09 -197.25 1725.13
26.81 -197.37 1725.16
33.87 -196.95 1725.14
34.17 -196.96 1725.14
33.87 -197.20 1725.14
33.58 -197.93 1725.14
34.35 -196.74 1725.15
34.11 -196.97 1725.14
33.90 -197.45 1725.14
33.85 -196.84 1725.14
34.05 -196.77 1725.14
33.55 -197.99 1725.14
33.40 -198.09 1725.14
33.23 -198.37 1725.14
33.57 -197.94 1725.14
33.39 -198.20 1725.14
34.10 -197.12 1725.14
33.31 -198.16 1725.14
34.04 -196.81 1725.14
35.98 -197.52 1725.15
35.65 -197.38 1725.15
35.66 -197.52 1725.15
35.90 -197.15 1725.15
35.99 -197.28 1725.15
40.59 -197.22 1725.31
40.32 -197.20 1725.24
40.55 -197.17 1725.30
40.32 -197.18 1725.24
27.05 -197.43 1725.15
26.48 -197.74 1725.19
27.12 -197.38 1725.14
26.45 -197.48 1725.18
27.47 -197.32 1725.12
26.33 -197.56 1725.19
26.28 -197.49 1725.19
26.66 -197.74 1725.18
27.74 -197.29 1725.10
28.26 -197.71 1725.11
27.74 -197.73 1725.13
28.07 -197.43 1725.10
28.17 -197.88 1725.12
28.77 -197.77 1725.09
28.11 -197.49 1725.10
28.13 -197.75 1725.12
28.50 -197.81 1725.10
27.80 -197.86 1725.14
28.00 -197.62 1725.11
28.07 -197.54 1725.11
28.25 -197.64 1725.10
27.29 -197.76 1725.15
27.63 -197.69 1725.13
29.03 -197.88 1725.09
30.26 -197.00 1725.11
29.54 -197.53 1725.09
29.00 -197.49 1725.10
28.80 -197.26 1725.10
28.46 -197.29 1725.10
28.07 -197.32 1725.10
29.30 -197.63 1725.09
29.39 -197.42 1725.10
28.40 -197.24 1725.10
28.66 -197.20 1725.10
29.51 -197.36 1725.10
29.82 -197.03 1725.11
29.79 -197.12 1725.11
29.37 -197.27 1725.10
28.75 -197.19 1725.10
28.67 -197.33 1725.10
29.10 -197.68 1725.09
28.36 -197.47 1725.10
28.95 -197.78 1725.09
31.44 -196.79 1725.12
31.81 -197.28 1725.12
30.61 -196.89 1725.11
31.95 -196.72 1725.12
31.39 -197.47 1725.11
32.11 -196.92 1725.12
30.96 -196.96 1725.11
31.46 -196.75 1725.12
30.82 -196.98 1725.11
31.41 -197.26 1725.12
31.04 -197.27 1725.11
32.25 -196.49 1725.13
31.62 -197.63 1725.11
31.56 -197.25 1725.12
31.60 -196.60 1725.12
31.91 -196.90 1725.12
31.80 -196.70 1725.12
31.41 -197.21 1725.12
31.16 -197.04 1725.12
31.56 -197.22 1725.12
30.97 -197.19 1725.11
31.74 -196.86 1725.12
31.46 -197.12 1725.12
30.92 -197.02 1725.11
31.39 -197.31 1725.12
32.61 -196.56 1725.13
32.36 -196.87 1725.12
32.32 -197.28 1725.12
32.51 -196.92 1725.12
33.95 -196.24 1725.13
32.88 -196.33 1725.13
32.58 -196.76 1725.13
33.18 -196.33 1725.13
33.04 -196.45 1725.13
32.65 -196.56 1725.13
32.69 -196.75 1725.13
31.87 -197.43 1725.12
32.03 -197.33 1725.12
32.32 -196.67 1725.13
32.75 -196.87 1725.12
33.00 -196.80 1725.13
32.18 -197.20 1725.12
32.55 -196.55 1725.13
31.97 -197.41 1725.12
33.05 -196.58 1725.13
33.08 -196.47 1725.13
32.87 -198.32 1725.14
34.00 -196.38 1725.14
34.05 -196.24 1725.13
33.73 -196.62 1725.13
32.00 -197.79 1725.12
32.44 -197.40 1725.12
33.59 -197.13 1725.14
32.41 -197.74 1725.13
32.96 -197.47 1725.13
33.30 -196.72 1725.13
33.56 -196.65 1725.13
32.47 -198.11 1725.13
33.11 -198.43 1725.14
32.64 -197.11 1725.12
33.52 -197.21 1725.14
33.22 -197.19 1725.13
32.10 -197.49 1725.12
33.83 -196.62 1725.13
33.13 -198.01 1725.14
33.04 -197.84 1725.14
32.71 -197.17 1725.12
32.60 -198.17 1725.13
32.44 -197.83 1725.13
32.64 -197.16 1725.12
33.53 -197.40 1725.14
33.06 -196.95 1725.13
33.41 -197.64 1725.14
32.99 -198.41 1725.14
33.27 -197.94 1725.14
32.71 -198.16 1725.13
33.21 -197.33 1725.13
33.28 -197.70 1725.14
32.28 -197.31 1725.12
32.70 -197.40 1725.13
33.05 -198.28 1725.14
32.89 -198.25 1725.14
32.78 -197.83 1725.13
33.29 -197.64 1725.14
33.26 -196.72 1725.13
33.54 -196.68 1725.13
31.80 -197.74 1725.12
32.69 -197.30 1725.12
33.61 -196.55 1725.13
35.30 -197.03 1725.15
35.28 -197.23 1725.15
34.68 -197.57 1725.15
34.59 -197.26 1725.15
35.06 -197.34 1725.15
34.77 -197.33 1725.15
34.80 -197.69 1725.15
34.72 -197.50 1725.15
35.25 -197.05 1725.15
35.04 -197.11 1725.15
35.27 -197.41 1725.15
37.18 -197.62 1725.14
37.03 -197.57 1725.14
37.22 -197.19 1725.15
37.89 -197.12 1725.14
36.66 -197.60 1725.14
37.89 -196.84 1725.15
37.45 -197.52 1725.14
37.65 -197.86 1725.13
37.41 -198.04 1725.13
37.00 -197.90 1725.14
37.19 -197.30 1725.14
37.50 -197.20 1725.14
37.20 -197.51 1725.14
37.70 -197.15 1725.14
37.82 -196.94 1725.15
36.72 -197.51 1725.14
38.07 -196.66 1725.15
37.25 -197.37 1725.14
37.80 -197.35 1725.14
37.24 -197.49 1725.14
37.30 -197.29 1725.14
37.31 -197.76 1725.14
36.93 -197.85 1725.14
37.73 -197.33 1725.14
37.67 -197.87 1725.13
39.21 -198.42 1725.15
38.54 -198.40 1725.14
38.69 -197.76 1725.15
37.92 -198.20 1725.13
38.88 -198.32 1725.15
38.45 -197.49 1725.15
38.43 -197.67 1725.15
38.40 -198.02 1725.14
38.65 -197.46 1725.15
38.60 -197.94 1725.15
38.69 -198.41 1725.14
38.35 -196.95 1725.15
38.69 -198.26 1725.14
37.70 -198.20 1725.13
38.40 -197.20 1725.15
38.55 -197.48 1725.15
38.13 -196.84 1725.15
38.20 -197.56 1725.14
38.02 -197.05 1725.15
38.52 -197.70 1725.15
38.45 -197.28 1725.15
38.09 -197.27 1725.14
38.00 -197.60 1725.14
38.91 -197.86 1725.15
37.76 -197.96 1725.13
38.41 -197.70 1725.14
38.71 -198.06 1725.15
38.35 -197.20 1725.15
38.63 -198.29 1725.14
38.48 -198.10 1725.14
38.56 -198.23 1725.14
38.22 -196.98 1725.15
38.19 -197.26 1725.15
39.96 -197.33 1725.19
39.78 -197.45 1725.18
39.66 -197.71 1725.17
39.15 -198.08 1725.15
39.23 -197.70 1725.16
39.64 -197.76 1725.17
39.21 -197.09 1725.17
39.43 -197.79 1725.16
39.66 -197.40 1725.18
38.60 -197.00 1725.15
39.44 -197.10 1725.18
39.36 -197.15 1725.17
39.05 -197.37 1725.16
39.28 -198.40 1725.15
38.68 -197.10 1725.16
38.73 -196.82 1725.16
39.16 -197.51 1725.16
38.53 -197.00 1725.15
39.80 -197.59 1725.18
38.49 -196.73 1725.16
39.09 -196.96 1725.17
39.04 -197.78 1725.15
39.82 -197.34 1725.18
39.45 -197.88 1725.16
39.97 -197.38 1725.18
39.47 -197.20 1725.17
38.69 -197.10 1725.16
38.78 -197.11 1725.16
39.80 -198.18 1725.18
39.80 -197.98 1725.18
40.04 -198.41 1725.20
39.91 -198.24 1725.19
40.06 -198.33 1725.20
40.17 -198.09 1725.20
40.32 -198.33 1725.22
40.22 -198.11 1725.21
39.37 -198.46 1725.15
39.73 -198.03 1725.17
40.00 -198.26 1725.19
40.32 -198.32 1725.22
39.91 -198.27 1725.19
25.88 -197.86 1725.38
26.00 -197.86 1725.35
25.88 -197.79 1725.36
26.29 -197.85 1725.28
25.78 -197.72 1725.36
25.49 -197.73 1725.43
26.37 -197.88 1725.27
25.47 -197.63 1725.40
25.47 -197.58 1725.39
25.32 -197.60 1725.43
25.21 -197.23 1725.33
25.32 -197.48 1725.39
25.77 -197.45 1725.26
25.40 -197.59 1725.41
29.18 -197.82 1725.09
30.17 -197.15 1725.11
30.92 -197.34 1725.11
30.83 -197.36 1725.11
30.25 -197.81 1725.10
29.56 -197.64 1725.09
29.82 -197.80 1725.09
30.51 -197.55 1725.10
29.90 -197.54 1725.10
31.37 -197.67 1725.11
29.74 -197.65 1725.09
29.92 -197.50 1725.10
29.31 -197.86 1725.09
31.13 -197.73 1725.11
30.41 -197.47 1725.10
30.00 -197.79 1725.10
30.63 -197.22 1725.11
30.16 -197.36 1725.10
30.47 -197.65 1725.10
30.81 -197.71 1725.11
29.28 -197.86 1725.09
33.81 -198.22 1725.15
33.86 -197.98 1725.15
33.97 -198.07 1725.15
34.70 -197.86 1725.15
33.95 -197.77 1725.15
34.11 -198.14 1725.15
33.44 -198.32 1725.15
34.59 -197.42 1725.15
34.51 -197.59 1725.15
34.34 -197.21 1725.15
33.78 -198.13 1725.15
34.59 -197.41 1725.15
34.40 -197.83 1725.15
34.47 -197.13 1725.15
34.54 -197.29 1725.15
33.67 -198.19 1725.15
34.36 -197.75 1725.15
33.67 -198.04 1725.15
35.28 -197.58 1725.15
35.10 -197.77 1725.15
35.03 -197.77 1725.15
35.46 -197.47 1725.15
36.02 -198.16 1725.15
35.91 -197.58 1725.15
36.15 -198.03 1725.14
35.91 -198.12 1725.15
36.35 -197.58 1725.14
36.29 -197.81 1725.14
35.72 -197.81 1725.15
36.07 -197.75 1725.15
36.65 -198.20 1725.14
36.95 -198.07 1725.14
36.47 -197.98 1725.14
36.86 -198.24 1725.14
37.31 -198.26 1725.13
36.29 -198.28 1725.14
36.60 -197.63 1725.14
37.20 -198.27 1725.13
36.73 -197.85 1725.14
36.33 -198.27 1725.14
37.10 -198.27 1725.13
36.84 -197.84 1725.14
36.96 -198.29 1725.13
37.46 -198.35 1725.13
39.95 -198.85 1725.20
39.77 -198.78 1725.19
40.13 -198.87 1725.21
40.18 -198.60 1725.21
40.20 -198.66 1725.21
40.50 -197.98 1725.25
40.53 -198.09 1725.25
40.38 -197.81 1725.23
40.13 -197.39 1725.19
40.39 -197.83 1725.23
40.27 -197.35 1725.23
40.48 -197.42 1725.28
40.36 -197.40 1725.25
25.30 -197.91 1725.53
26.31 -198.02 1725.28
26.45 -197.93 1725.24
25.42 -197.90 1725.50
25.78 -198.10 1725.40
25.62 -197.98 1725.45
26.37 -198.00 1725.26
25.72 -198.11 1725.42
25.51 -197.90 1725.48
26.46 -198.53 1725.27
25.99 -198.41 1725.34
26.48 -198.13 1725.24
26.61 -198.26 1725.22
26.65 -198.28 1725.22
26.64 -198.10 1725.21
26.21 -198.34 1725.30
26.73 -198.30 1725.21
26.58 -198.27 1725.23
26.69 -198.27 1725.21
26.23 -198.51 1725.31
27.06 -198.16 1725.16
27.64 -197.97 1725.14
28.16 -198.20 1725.11
27.27 -198.25 1725.14
27.32 -198.39 1725.14
27.42 -198.41 1725.13
28.58 -197.90 1725.10
27.34 -198.49 1725.13
28.32 -198.05 1725.11
27.93 -198.23 1725.12
28.31 -198.18 1725.10
26.82 -197.98 1725.18
28.42 -197.97 1725.11
27.97 -197.94 1725.13
27.51 -198.16 1725.14
28.38 -198.08 1725.10
27.68 -198.37 1725.12
29.15 -198.04 1725.08
29.53 -198.05 1725.09
30.86 -198.11 1725.10
30.47 -198.20 1725.09
29.93 -198.84 1725.07
29.84 -198.07 1725.09
29.39 -198.67 1725.07
29.97 -198.67 1725.08
30.65 -198.09 1725.10
29.66 -198.29 1725.08
30.12 -198.37 1725.08
29.40 -198.19 1725.08
30.41 -198.52 1725.08
29.86 -198.49 1725.08
29.81 -198.52 1725.08
29.99 -198.81 1725.07
30.25 -198.34 1725.09
30.38 -197.80 1725.10
29.91 -198.28 1725.08
30.88 -197.77 1725.11
31.14 -197.90 1725.10
30.58 -198.35 1725.09
29.39 -198.36 1725.08
30.65 -198.36 1725.09
30.53 -197.98 1725.10
29.92 -198.33 1725.08
29.33 -197.98 1725.09
29.35 -198.20 1725.08
30.80 -198.09 1725.10
30.97 -198.00 1725.10
30.56 -197.93 1725.10
29.47 -197.86 1725.09
30.43 -198.39 1725.09
30.14 -198.52 1725.08
30.02 -197.86 1725.09
30.02 -198.56 1725.08
30.02 -198.39 1725.08
30.22 -199.37 1725.09
29.34 -199.29 1725.06
30.48 -199.18 1725.09
30.15 -199.00 1725.08
30.98 -199.48 1725.11
29.69 -199.07 1725.07
30.55 -199.19 1725.10
31.14 -199.12 1725.11
30.41 -198.59 1725.08
31.39 -198.41 1725.11
30.94 -198.70 1725.10
30.38 -198.75 1725.09
31.51 -197.96 1725.11
29.70 -199.19 1725.07
30.56 -199.39 1725.10
30.06 -199.29 1725.08
30.38 -199.24 1725.09
30.46 -198.75 1725.09
31.04 -199.17 1725.11
30.70 -199.04 1725.10
30.09 -198.77 1725.08
30.73 -199.24 1725.10
30.59 -199.12 1725.10
31.17 -198.10 1725.10
31.11 -199.04 1725.11
30.98 -198.76 1725.10
30.73 -198.67 1725.10
30.78 -198.91 1725.10
30.00 -198.91 1725.07
30.29 -198.84 1725.08
30.90 -198.60 1725.10
31.55 -197.90 1725.11
29.89 -199.13 1725.07
31.25 -199.21 1725.12
32.21 -198.62 1725.13
32.44 -198.51 1725.13
31.73 -199.02 1725.12
31.54 -199.20 1725.12
31.43 -199.01 1725.12
32.22 -198.06 1725.13
32.27 -198.55 1725.13
32.08 -198.72 1725.13
31.78 -198.94 1725.12
31.80 -197.85 1725.12
31.78 -198.22 1725.12
31.76 -198.49 1725.12
32.01 -198.43 1725.12
32.73 -198.41 1725.14
32.32 -198.63 1725.13
32.10 -198.74 1725.13
31.64 -198.21 1725.12
31.72 -198.80 1725.12
32.15 -198.48 1725.13
31.38 -199.19 1725.12
31.78 -198.10 1725.12
32.40 -198.23 1725.13
31.25 -199.29 1725.12
31.86 -198.28 1725.12
31.30 -199.27 1725.12
31.92 -197.92 1725.12
31.85 -198.80 1725.12
32.87 -198.45 1725.14
31.50 -198.75 1725.12
31.73 -198.80 1725.12
28.64 -199.03 1725.08
28.79 -198.61 1725.08
29.05 -199.23 1725.06
28.98 -197.95 1725.09
28.30 -198.79 1725.09
28.42 -198.40 1725.10
28.40 -198.83 1725.09
29.20 -199.25 1725.06
27.74 -198.61 1725.11
28.70 -198.78 1725.08
28.86 -198.87 1725.07
29.06 -198.14 1725.08
29.07 -198.37 1725.08
28.78 -198.64 1725.08
28.97 -198.88 1725.07
28.59 -198.46 1725.09
28.57 -198.35 1725.09
28.70 -198.59 1725.08
28.62 -198.82 1725.08
27.89 -198.51 1725.11
29.03 -198.82 1725.07
28.50 -198.55 1725.09
28.33 -198.32 1725.10
29.00 -198.16 1725.08
28.26 -198.43 1725.10
28.38 -198.30 1725.10
28.74 -198.93 1725.08
35.14 -198.01 1725.15
35.18 -197.93 1725.15
35.58 -198.12 1725.15
35.84 -198.33 1725.15
35.06 -197.84 1725.16
35.54 -198.15 1725.15
35.58 -197.70 1725.15
40.49 -198.36 1725.25
40.50 -198.57 1725.25
27.94 -199.25 1725.08
27.70 -199.02 1725.10
27.53 -199.41 1725.08
27.79 -198.95 1725.10
27.61 -199.41 1725.08
27.76 -199.07 1725.10
28.02 -199.36 1725.08
28.49 -199.40 1725.07
27.73 -199.15 1725.09
28.73 -199.26 1725.07
27.91 -199.03 1725.09
27.55 -199.52 1725.08
28.55 -199.31 1725.07
27.76 -199.36 1725.08
27.92 -199.15 1725.09
28.08 -199.15 1725.09
28.41 -199.04 1725.08
27.35 -198.69 1725.12
28.77 -199.22 1725.07
27.85 -199.65 1725.07
28.12 -199.77 1725.06
27.52 -200.03 1725.06
27.76 -199.52 1725.07
28.12 -199.96 1725.05
28.40 -199.87 1725.05
29.11 -199.37 1725.06
28.31 -199.80 1725.06
28.59 -199.50 1725.06
27.74 -200.28 1725.05
27.50 -199.86 1725.07
27.91 -199.55 1725.07
28.28 -199.99 1725.05
28.11 -199.55 1725.07
27.46 -199.72 1725.07
27.54 -199.60 1725.07
27.90 -199.84 1725.06
27.79 -199.91 1725.06
25.97 -198.87 1725.37
26.76 -198.64 1725.22
26.88 -198.62 1725.20
26.29 -198.91 1725.32
25.91 -198.61 1725.37
25.87 -198.77 1725.39
26.31 -198.57 1725.30
26.14 -198.73 1725.33
26.11 -198.81 1725.35
26.42 -198.86 1725.29
26.81 -198.59 1725.21
26.04 -198.59 1725.34
26.29 -199.14 1725.32
26.27 -199.23 1725.32
27.09 -198.93 1725.15
27.12 -198.85 1725.15
26.57 -199.33 1725.24
27.24 -198.79 1725.13
26.66 -199.39 1725.22
26.46 -199.12 1725.28
26.55 -199.24 1725.25
26.40 -199.21 1725.29
26.21 -199.14 1725.34
26.85 -199.37 1725.18
27.15 -199.35 1725.10
32.14 -199.07 1725.13
31.72 -199.44 1725.13
31.12 -200.01 1725.13
31.63 -199.76 1725.13
31.37 -199.69 1725.13
31.69 -199.44 1725.13
31.84 -199.74 1725.14
31.66 -199.68 1725.13
32.01 -199.12 1725.13
32.66 -198.89 1725.14
31.19 -200.28 1725.13
31.39 -199.43 1725.12
31.56 -199.28 1725.12
32.07 -199.24 1725.13
31.52 -199.52 1725.13
32.21 -199.42 1725.14
31.11 -199.83 1725.12
31.18 -199.92 1725.13
31.77 -199.27 1725.13
31.26 -199.70 1725.12
31.29 -200.08 1725.13
32.94 -198.63 1725.14
31.51 -200.01 1725.13
31.31 -200.00 1725.13
31.41 -199.60 1725.12
32.13 -199.18 1725.13
34.90 -199.37 1725.14
33.55 -198.60 1725.14
33.96 -198.40 1725.15
34.87 -199.40 1725.14
33.99 -198.34 1725.15
33.47 -198.45 1725.14
34.81 -199.51 1725.14
34.49 -198.71 1725.15
34.65 -198.29 1725.15
34.48 -198.06 1725.15
34.88 -199.45 1725.14
34.75 -197.98 1725.15
34.06 -198.42 1725.15
34.46 -199.26 1725.14
33.76 -198.88 1725.14
33.48 -198.67 1725.14
34.73 -198.03 1725.15
34.40 -198.80 1725.15
34.17 -198.78 1725.15
34.01 -198.67 1725.15
34.79 -198.15 1725.15
34.70 -198.93 1725.15
33.95 -198.79 1725.14
33.98 -198.36 1725.15
33.41 -198.66 1725.14
34.72 -199.57 1725.14
34.64 -198.12 1725.15
34.33 -199.33 1725.14
34.13 -198.50 1725.15
34.83 -199.35 1725.14
34.77 -199.64 1725.14
34.71 -198.14 1725.15
33.72 -198.82 1725.14
35.00 -198.29 1725.15
35.30 -198.78 1725.15
35.02 -199.72 1725.14
35.54 -198.38 1725.15
35.42 -198.85 1725.15
35.00 -198.50 1725.15
35.00 -198.05 1725.15
34.95 -199.10 1725.15
35.19 -198.41 1725.15
34.97 -199.52 1725.14
35.08 -198.86 1725.15
35.05 -198.91 1725.15
35.04 -198.69 1725.15
35.09 -199.61 1725.14
34.95 -199.48 1725.14
34.99 -198.55 1725.15
35.12 -198.13 1725.15
35.10 -198.10 1725.15
35.80 -198.40 1725.15
35.19 -198.45 1725.15
38.64 -199.07 1725.15
38.17 -199.10 1725.14
38.19 -198.74 1725.14
38.41 -199.54 1725.15
37.59 -198.43 1725.13
38.54 -198.91 1725.14
37.87 -198.80 1725.14
37.86 -198.69 1725.13
38.32 -199.07 1725.14
38.71 -198.44 1725.14
38.56 -198.43 1725.14
38.40 -198.51 1725.14
37.78 -198.42 1725.13
37.69 -198.40 1725.13
37.88 -198.65 1725.13
38.30 -198.82 1725.14
38.68 -198.72 1725.14
38.21 -198.86 1725.14
38.81 -198.50 1725.14
38.53 -199.39 1725.15
38.38 -199.05 1725.14
38.13 -198.54 1725.14
38.20 -198.87 1725.14
27.04 -199.56 1725.12
26.57 -199.79 1725.20
26.09 -199.91 1725.30
26.59 -199.65 1725.21
26.10 -199.93 1725.29
26.05 -199.67 1725.33
26.01 -199.54 1725.35
26.27 -199.79 1725.27
26.42 -199.52 1725.26
26.56 -200.34 1725.21
26.64 -200.40 1725.20
26.78 -199.97 1725.17
26.70 -199.97 1725.18
27.02 -199.86 1725.12
26.38 -199.88 1725.24
26.64 -200.32 1725.20
26.99 -199.76 1725.12
26.58 -200.38 1725.21
27.36 -200.43 1725.10
26.96 -200.24 1725.15
27.10 -200.17 1725.12
27.41 -199.93 1725.07
27.41 -199.97 1725.07
27.57 -200.17 1725.06
27.23 -199.85 1725.09
27.46 -200.30 1725.08
27.38 -199.97 1725.07
27.31 -200.20 1725.10
27.30 -199.88 1725.08
27.26 -200.00 1725.09
28.88 -200.70 1725.11
28.69 -200.73 1725.10
29.19 -200.01 1725.09
29.17 -200.46 1725.11
28.59 -200.72 1725.10
29.14 -200.41 1725.10
28.73 -200.34 1725.09
28.64 -200.36 1725.08
28.21 -201.09 1725.10
28.47 -200.78 1725.10
29.01 -200.62 1725.11
28.50 -200.84 1725.10
28.65 -201.04 1725.12
28.95 -200.33 1725.09
28.41 -200.69 1725.09
29.16 -200.06 1725.09
29.04 -199.71 1725.07
29.16 -199.69 1725.07
28.61 -201.11 1725.12
28.28 -200.81 1725.09
28.15 -200.20 1725.05
28.57 -200.10 1725.07
28.42 -200.36 1725.07
27.94 -200.45 1725.06
28.85 -199.76 1725.06
27.92 -200.40 1725.05
28.28 -200.02 1725.05
28.62 -200.08 1725.07
28.43 -200.39 1725.08
28.31 -200.70 1725.09
28.47 -200.39 1725.08
28.12 -200.23 1725.05
28.57 -200.01 1725.06
28.92 -199.65 1725.06
30.02 -199.89 1725.10
30.39 -199.57 1725.10
29.73 -199.40 1725.07
29.81 -200.38 1725.12
29.36 -200.46 1725.11
30.14 -199.60 1725.09
30.16 -199.68 1725.10
29.90 -199.95 1725.10
30.48 -199.47 1725.10
29.32 -199.52 1725.07
29.58 -199.51 1725.07
29.42 -200.77 1725.13
30.49 -199.47 1725.10
30.47 -199.75 1725.11
30.68 -199.55 1725.11
30.02 -199.70 1725.10
30.01 -199.66 1725.09
29.69 -200.09 1725.10
30.88 -199.54 1725.11
30.13 -199.99 1725.11
29.94 -199.70 1725.09
29.47 -200.62 1725.12
29.64 -199.58 1725.08
29.40 -200.28 1725.10
29.67 -199.42 1725.07
29.51 -199.75 1725.08
30.54 -199.59 1725.11
29.44 -200.04 1725.09
30.21 -199.99 1725.11
29.88 -199.96 1725.10
30.35 -199.51 1725.10
37.94 -199.31 1725.14
37.22 -199.17 1725.13
37.73 -198.84 1725.13
37.55 -199.47 1725.14
37.84 -199.40 1725.14
37.63 -198.61 1725.13
37.18 -199.12 1725.13
37.20 -199.40 1725.13
37.27 -199.28 1725.13
36.98 -199.48 1725.13
37.41 -198.53 1725.13
37.85 -198.95 1725.14
37.13 -199.11 1725.13
36.96 -199.45 1725.13
37.35 -199.06 1725.13
37.87 -199.57 1725.14
37.41 -199.34 1725.13
37.28 -198.89 1725.13
37.46 -199.51 1725.14
36.97 -198.58 1725.13
37.01 -198.72 1725.13
36.88 -198.73 1725.13
37.00 -199.08 1725.13
36.92 -198.60 1725.13
36.73 -199.02 1725.13
36.69 -198.95 1725.13
36.66 -199.08 1725.13
37.18 -198.57 1725.13
36.63 -198.58 1725.14
36.86 -199.33 1725.13
36.80 -198.82 1725.13
36.85 -198.48 1725.13
37.27 -198.51 1725.13
36.14 -198.54 1725.14
36.80 -198.50 1725.14
37.12 -198.81 1725.13
37.26 -198.42 1725.13
38.81 -199.34 1725.16
39.13 -199.40 1725.19
39.34 -199.44 1725.22
39.44 -199.01 1725.20
39.36 -198.70 1725.17
39.12 -199.18 1725.18
39.22 -198.74 1725.16
39.05 -199.15 1725.17
38.78 -199.37 1725.16
39.09 -199.43 1725.19
39.22 -199.36 1725.20
39.18 -198.79 1725.16
38.80 -199.36 1725.16
39.50 -198.88 1725.19
39.38 -198.71 1725.17
38.73 -199.43 1725.16
39.21 -199.34 1725.20
39.94 -199.18 1725.23
39.89 -199.57 1725.27
40.04 -199.14 1725.22
39.78 -199.04 1725.21
40.07 -199.09 1725.22
39.43 -198.67 1725.17
25.90 -199.40 1725.40
25.81 -199.57 1725.47
25.79 -199.66 1725.49
25.87 -199.78 1725.44
30.80 -199.96 1725.12
30.93 -199.87 1725.12
30.74 -200.52 1725.13
30.84 -200.11 1725.13
30.49 -200.86 1725.14
30.15 -200.82 1725.14
30.53 -200.47 1725.13
30.78 -200.48 1725.13
30.83 -200.74 1725.13
30.48 -200.88 1725.14
30.65 -200.55 1725.13
30.92 -200.64 1725.13
32.68 -199.38 1725.14
32.66 -199.75 1725.14
32.48 -199.40 1725.14
32.13 -200.55 1725.14
32.28 -200.18 1725.14
32.49 -199.43 1725.14
31.77 -199.94 1725.14
31.25 -200.58 1725.14
32.79 -199.02 1725.14
32.39 -200.51 1725.14
31.94 -200.45 1725.14
32.24 -200.01 1725.14
31.85 -200.16 1725.14
31.98 -200.07 1725.14
31.71 -200.17 1725.14
32.70 -199.10 1725.14
32.47 -199.88 1725.14
32.67 -199.40 1725.14
31.84 -200.36 1725.14
32.72 -199.50 1725.14
32.30 -199.57 1725.14
32.24 -200.51 1725.14
32.13 -199.65 1725.14
32.57 -200.06 1725.14
32.61 -199.08 1725.14
32.02 -200.20 1725.14
31.60 -200.51 1725.14
31.92 -200.54 1725.14
32.77 -198.93 1725.14
31.47 -200.37 1725.14
31.14 -200.60 1725.14
32.43 -200.58 1725.14
32.95 -199.21 1725.14
33.03 -199.95 1725.14
34.17 -199.47 1725.14
33.82 -199.41 1725.14
32.57 -200.20 1725.14
33.72 -199.18 1725.14
33.68 -199.67 1725.14
33.37 -200.28 1725.14
32.39 -200.62 1725.14
33.67 -199.71 1725.14
33.93 -199.60 1725.14
34.22 -199.99 1725.14
34.51 -199.71 1725.14
33.32 -199.94 1725.14
33.51 -199.72 1725.14
33.29 -199.02 1725.14
33.71 -199.04 1725.14
33.21 -199.22 1725.14
33.53 -199.70 1725.14
34.71 -199.86 1725.14
33.42 -200.06 1725.14
33.62 -200.10 1725.14
33.62 -198.97 1725.14
33.37 -199.95 1725.14
33.32 -199.82 1725.14
33.03 -200.32 1725.14
33.99 -199.37 1725.14
33.45 -199.70 1725.14
32.65 -199.96 1725.14
32.84 -200.02 1725.14
33.31 -198.92 1725.14
33.24 -198.67 1725.14
33.99 -199.81 1725.14
32.92 -199.74 1725.14
34.68 -199.81 1725.14
33.09 -200.05 1725.14
33.58 -199.72 1725.14
33.01 -200.21 1725.14
33.01 -199.60 1725.14
33.30 -199.47 1725.14
33.86 -199.85 1725.14
34.36 -199.67 1725.14
34.25 -199.96 1725.14
33.14 -198.80 1725.14
32.90 -199.42 1725.14
34.04 -199.60 1725.14
34.45 -199.60 1725.14
32.78 -199.46 1725.14
35.38 -199.61 1725.14
36.48 -199.31 1725.13
35.23 -199.77 1725.14
35.59 -199.27 1725.14
35.37 -199.55 1725.14
34.95 -199.83 1725.14
36.60 -199.48 1725.13
36.28 -198.92 1725.14
36.60 -199.28 1725.13
35.73 -199.05 1725.14
35.88 -199.66 1725.14
36.41 -199.53 1725.13
36.51 -199.17 1725.13
36.16 -199.55 1725.13
36.17 -198.98 1725.14
35.49 -199.62 1725.14
35.53 -199.63 1725.14
35.66 -199.54 1725.14
35.43 -199.16 1725.14
35.91 -198.98 1725.14
35.94 -199.33 1725.14
36.22 -199.56 1725.13
35.91 -199.44 1725.14
39.44 -199.95 1725.24
39.01 -199.81 1725.20
39.43 -199.94 1725.24
39.23 -199.88 1725.22
39.62 -199.94 1725.26
38.98 -200.00 1725.20
39.27 -199.74 1725.22
38.55 -199.65 1725.16
38.74 -199.64 1725.18
38.97 -200.03 1725.20
39.35 -199.75 1725.23
39.94 -199.91 1725.30
39.63 -200.11 1725.26
39.75 -200.13 1725.28
27.23 -201.23 1725.17
27.64 -201.05 1725.12
26.87 -201.62 1725.23
27.72 -201.31 1725.13
27.06 -201.49 1725.21
27.03 -201.56 1725.22
27.40 -200.94 1725.13
27.19 -201.50 1725.20
27.47 -201.05 1725.13
27.99 -201.25 1725.11
27.72 -201.35 1725.14
27.70 -200.93 1725.10
26.91 -201.13 1725.20
26.78 -200.88 1725.20
26.87 -201.41 1725.22
27.06 -200.79 1725.16
26.87 -201.26 1725.21
27.07 -200.69 1725.15
26.81 -200.96 1725.20
27.11 -201.16 1725.18
27.03 -201.13 1725.18
26.91 -201.29 1725.21
26.97 -200.74 1725.17
27.09 -200.86 1725.16
26.65 -200.80 1725.22
29.81 -200.88 1725.14
30.61 -200.03 1725.12
29.93 -200.45 1725.13
29.55 -201.03 1725.14
30.09 -200.74 1725.14
30.08 -200.41 1725.13
29.63 -200.98 1725.14
30.07 -200.52 1725.13
29.80 -200.59 1725.13
30.23 -200.55 1725.13
30.09 -200.73 1725.14
29.34 -200.93 1725.13
29.81 -200.51 1725.13
29.69 -202.03 1725.15
29.35 -202.14 1725.16
29.86 -201.98 1725.14
29.59 -202.27 1725.15
29.44 -202.15 1725.16
29.38 -202.18 1725.16
30.17 -201.63 1725.14
29.52 -202.24 1725.15
30.34 -201.17 1725.14
30.36 -201.11 1725.14
30.25 -201.22 1725.14
30.05 -201.10 1725.14
29.82 -201.70 1725.15
30.67 -200.92 1725.14
29.94 -201.31 1725.15
29.66 -201.55 1725.15
29.90 -201.47 1725.15
30.09 -201.18 1725.14
33.53 -200.33 1725.14
33.24 -201.43 1725.14
33.19 -200.51 1725.14
33.92 -200.42 1725.14
34.38 -200.20 1725.14
33.46 -200.47 1725.14
32.73 -200.98 1725.14
33.18 -201.28 1725.14
32.86 -200.94 1725.14
34.75 -199.95 1725.14
33.48 -200.45 1725.14
33.77 -200.49 1725.14
32.72 -200.99 1725.14
33.23 -201.04 1725.14
33.03 -201.16 1725.14
33.32 -201.28 1725.14
34.17 -200.29 1725.14
33.28 -200.82 1725.14
32.99 -200.53 1725.14
32.70 -200.71 1725.14
33.82 -200.87 1725.14
33.30 -200.51 1725.14
34.17 -200.57 1725.14
33.46 -201.27 1725.14
33.45 -201.16 1725.14
33.27 -201.59 1725.14
33.48 -201.07 1725.14
34.19 -200.44 1725.14
34.51 -199.99 1725.14
33.46 -200.45 1725.14
33.67 -200.87 1725.14
34.35 -200.16 1725.14
37.00 -200.29 1725.14
36.44 -200.40 1725.14
36.68 -200.40 1725.14
37.40 -200.67 1725.14
36.30 -200.39 1725.14
37.15 -200.64 1725.15
36.32 -199.84 1725.14
36.37 -199.67 1725.13
35.96 -199.92 1725.14
36.12 -199.90 1725.14
37.50 -200.63 1725.14
36.51 -200.21 1725.14
35.59 -199.77 1725.14
36.75 -200.40 1725.14
36.45 -200.35 1725.14
36.28 -200.03 1725.14
36.98 -199.93 1725.14
35.83 -199.88 1725.14
36.19 -199.84 1725.14
36.57 -199.63 1725.13
37.15 -200.07 1725.14
36.80 -200.08 1725.14
35.73 -199.73 1725.14
35.62 -199.96 1725.14
37.17 -200.10 1725.14
36.67 -199.82 1725.13
36.88 -200.31 1725.14
35.53 -199.95 1725.14
35.73 -199.80 1725.14
37.36 -200.47 1725.14
36.44 -199.67 1725.13
38.32 -200.56 1725.18
38.04 -200.77 1725.16
38.31 -200.42 1725.17
38.59 -200.57 1725.19
38.34 -200.06 1725.16
39.26 -200.42 1725.24
38.79 -199.94 1725.18
38.63 -199.99 1725.17
38.92 -200.14 1725.20
38.30 -200.75 1725.18
38.89 -200.51 1725.21
38.68 -200.00 1725.18
38.37 -199.94 1725.15
38.31 -200.39 1725.17
38.90 -200.30 1725.21
38.92 -200.29 1725.21
38.78 -200.20 1725.19
38.62 -200.65 1725.20
38.55 -200.02 1725.17
37.34 -199.90 1725.14
37.78 -199.84 1725.14
38.31 -199.70 1725.15
37.65 -200.31 1725.14
37.58 -200.65 1725.14
37.54 -200.25 1725.14
37.17 -199.62 1725.13
37.63 -200.21 1725.14
38.02 -199.87 1725.14
37.76 -200.70 1725.15
37.25 -199.64 1725.13
37.76 -199.99 1725.14
37.36 -200.30 1725.14
37.96 -199.94 1725.14
37.52 -200.48 1725.14
37.15 -199.89 1725.14
38.05 -199.78 1725.14
37.15 -199.75 1725.13
37.81 -199.72 1725.14
37.29 -200.12 1725.14
38.20 -199.78 1725.15
37.02 -199.74 1725.13
38.36 -199.74 1725.15
25.99 -200.39 1725.61
25.76 -200.09 1725.59
25.85 -200.13 1725.55
25.77 -200.13 1725.61
26.26 -200.54 1725.45
26.35 -200.57 1725.38
26.23 -200.33 1725.36
26.25 -200.60 1725.49
26.09 -200.32 1725.49
26.03 -200.56 1725.69
31.69 -202.06 1725.14
32.26 -201.49 1725.14
32.51 -200.85 1725.14
32.09 -201.17 1725.14
32.31 -201.05 1725.14
32.03 -201.89 1725.14
31.53 -202.27 1725.14
32.33 -201.01 1725.14
32.19 -201.05 1725.14
31.92 -201.69 1725.14
32.30 -201.60 1725.14
32.72 -201.71 1725.14
32.16 -201.93 1725.14
31.65 -201.83 1725.14
33.18 -201.60 1725.14
32.10 -201.76 1725.14
32.54 -201.75 1725.14
32.33 -201.51 1725.14
32.48 -201.61 1725.14
32.64 -201.09 1725.14
33.04 -201.54 1725.14
31.57 -202.17 1725.14
31.64 -201.85 1725.14
32.30 -200.78 1725.14
32.97 -201.68 1725.14
39.10 -200.67 1725.23
38.43 -200.94 1725.19
38.93 -200.88 1725.22
39.16 -200.50 1725.23
39.02 -200.69 1725.23
39.13 -200.66 1725.23
39.19 -200.52 1725.23
38.71 -201.00 1725.21
38.59 -200.97 1725.20
38.50 -200.70 1725.19
38.21 -200.89 1725.18
26.36 -200.67 1725.42
26.22 -200.75 1725.53
26.37 -200.77 1725.38
26.19 -200.93 1725.50
26.62 -201.29 1725.27
26.42 -201.51 1725.39
26.35 -201.53 1725.42
26.52 -201.42 1725.33
26.59 -201.19 1725.27
28.63 -201.26 1725.14
29.00 -201.12 1725.14
27.46 -202.41 1725.23
28.53 -201.37 1725.15
27.72 -202.21 1725.22
28.99 -201.05 1725.13
28.72 -201.30 1725.15
27.37 -202.50 1725.24
27.58 -202.25 1725.22
28.92 -201.16 1725.14
28.60 -201.38 1725.15
28.13 -201.61 1725.16
27.91 -201.57 1725.14
28.32 -201.56 1725.16
28.91 -201.07 1725.13
27.84 -201.66 1725.15
34.40 -200.96 1725.14
34.82 -201.23 1725.14
34.92 -200.53 1725.14
34.71 -200.31 1725.14
34.31 -200.73 1725.14
34.56 -202.01 1725.14
33.75 -201.63 1725.14
34.52 -200.37 1725.14
34.76 -201.49 1725.14
35.18 -201.75 1725.14
34.99 -201.46 1725.14
34.67 -200.86 1725.14
34.41 -201.00 1725.14
34.16 -200.67 1725.14
34.34 -200.48 1725.14
34.72 -201.70 1725.14
34.31 -201.15 1725.14
34.57 -200.73 1725.14
34.83 -201.13 1725.14
34.58 -200.34 1725.14
33.70 -201.47 1725.14
34.21 -201.90 1725.14
34.04 -201.28 1725.14
34.60 -200.79 1725.14
34.82 -201.99 1725.14
35.51 -201.88 1725.14
35.06 -200.99 1725.14
33.53 -201.45 1725.14
35.16 -201.52 1725.14
35.42 -202.20 1725.14
34.88 -200.71 1725.14
34.10 -201.44 1725.14
35.06 -201.58 1725.14
34.53 -201.29 1725.14
35.19 -201.13 1725.14
35.16 -200.74 1725.14
34.23 -201.39 1725.14
34.33 -201.43 1725.14
34.67 -200.33 1725.14
34.64 -201.85 1725.14
