47.38 -201.12 1737.03
47.42 -200.99 1737.00
47.70 -200.94 1736.89
47.44 -200.75 1736.95
47.61 -200.66 1736.80
47.75 -200.80 1736.79
47.73 -200.52 1736.64
47.96 -200.80 1736.69
48.18 -200.96 1736.67
43.73 -201.34 1737.01
43.71 -201.30 1736.80
43.47 -201.09 1736.95
43.77 -201.35 1736.78
43.93 -201.50 1736.80
47.77 -201.20 1736.90
47.80 -201.30 1736.90
48.14 -201.47 1736.85
48.10 -201.18 1736.79
48.19 -201.35 1736.80
48.32 -201.42 1736.78
48.24 -201.48 1736.82
48.45 -201.17 1736.65
48.68 -201.07 1736.47
48.60 -201.31 1736.65
48.68 -201.37 1736.65
48.71 -201.15 1736.50
44.06 -201.67 1736.84
44.02 -201.61 1736.73
48.00 -201.69 1736.88
48.00 -201.75 1736.87
47.82 -201.67 1736.91
48.53 -201.50 1736.76
48.70 -201.67 1736.74
48.60 -201.48 1736.73
44.41 -201.97 1736.71
44.55 -202.04 1736.89
48.01 -201.98 1736.88
48.14 -201.79 1736.86
48.20 -201.93 1736.86
48.66 -202.11 1736.77
48.66 -202.06 1736.77
48.31 -201.75 1736.84
48.86 -201.76 1736.68
48.90 -201.65 1736.65
48.94 -201.84 1736.65
48.91 -202.10 1736.69
49.01 -202.08 1736.65
44.80 -202.20 1736.88
44.63 -202.12 1736.68
45.20 -202.42 1736.78
47.87 -202.11 1736.90
48.19 -202.54 1736.78
47.92 -202.25 1736.86
48.36 -202.60 1736.74
48.36 -202.66 1736.73
48.43 -202.62 1736.73
48.64 -202.13 1736.77
48.37 -202.24 1736.81
48.42 -202.26 1736.79
49.03 -202.32 1736.63
48.99 -202.37 1736.64
49.11 -202.18 1736.61
49.05 -202.47 1736.62
45.38 -202.50 1736.77
45.82 -202.65 1736.86
45.51 -202.59 1736.71
45.57 -202.64 1736.64
45.72 -202.75 1736.70
46.10 -202.91 1736.72
46.01 -202.75 1736.85
47.32 -202.68 1736.88
47.23 -202.61 1736.91
47.45 -202.53 1736.88
47.51 -202.81 1736.81
47.61 -202.87 1736.78
47.95 -202.72 1736.78
47.90 -202.72 1736.78
47.71 -202.72 1736.80
47.88 -202.56 1736.81
49.05 -202.55 1736.62
46.56 -202.81 1736.91
46.63 -202.89 1736.87
46.46 -202.85 1736.88
46.47 -203.02 1736.75
47.07 -202.93 1736.83
46.75 -203.00 1736.81
46.92 -202.93 1736.85
47.30 -202.73 1736.87
47.19 -202.89 1736.83
48.03 -202.87 1736.72
47.76 -202.92 1736.75
47.97 -203.08 1736.67
48.13 -203.09 1736.65
48.10 -203.14 1736.64
48.02 -203.17 1736.63
48.34 -202.68 1736.74
48.44 -202.81 1736.69
48.29 -202.87 1736.69
48.45 -202.90 1736.67
47.02 -203.11 1736.74
47.30 -203.32 1736.62
47.24 -203.08 1736.75
47.47 -202.95 1736.77
47.53 -203.09 1736.70
47.52 -203.12 1736.69
47.45 -203.33 1736.61
41.85 -191.06 1737.22
41.61 -190.99 1737.15
41.87 -190.76 1736.98
42.14 -190.94 1737.10
42.04 -190.67 1736.90
41.99 -190.70 1736.92
40.42 -191.20 1736.94
40.46 -191.20 1736.97
40.76 -191.06 1736.97
40.72 -191.14 1737.05
41.08 -191.00 1737.04
41.17 -191.03 1737.10
40.89 -191.07 1737.05
42.14 -191.06 1737.17
42.33 -191.01 1737.09
42.47 -191.17 1737.13
42.55 -191.08 1737.06
42.32 -190.89 1737.03
42.69 -191.03 1736.97
42.86 -191.44 1737.03
42.71 -191.15 1737.00
34.12 -191.85 1737.00
34.20 -191.90 1737.11
34.33 -191.67 1736.94
34.63 -191.77 1737.13
34.38 -191.85 1737.16
34.50 -191.86 1737.21
34.76 -191.70 1737.06
34.90 -191.77 1737.19
34.62 -191.74 1737.10
35.04 -191.66 1737.07
34.96 -191.58 1736.91
39.21 -191.52 1737.02
39.58 -191.41 1737.04
39.27 -191.50 1737.09
39.80 -191.39 1737.15
39.76 -191.39 1737.08
40.11 -191.33 1737.05
40.16 -191.30 1736.95
40.33 -191.26 1737.02
40.52 -191.21 1737.06
42.59 -191.48 1737.19
42.57 -191.52 1737.22
42.94 -191.51 1737.01
35.39 -191.71 1737.07
35.24 -191.71 1737.15
35.52 -191.72 1737.02
35.49 -191.67 1736.84
35.51 -191.69 1736.87
35.99 -191.84 1737.05
35.84 -191.80 1736.91
36.10 -191.94 1737.26
36.24 -191.92 1737.15
36.28 -191.90 1737.03
36.46 -191.96 1737.10
36.43 -191.93 1736.88
37.57 -192.00 1736.90
38.11 -191.89 1737.04
37.95 -191.95 1737.01
38.02 -191.92 1737.20
38.48 -191.78 1737.09
38.81 -191.67 1737.03
38.72 -191.72 1737.17
39.08 -191.57 1737.16
42.70 -191.73 1737.21
42.71 -191.92 1737.18
42.76 -192.01 1737.13
43.04 -191.72 1736.94
43.00 -191.59 1736.97
43.01 -191.86 1736.95
33.71 -192.35 1737.16
33.73 -192.41 1737.23
33.44 -192.56 1737.11
36.76 -192.01 1737.09
36.96 -192.02 1737.05
36.79 -192.00 1737.02
37.35 -192.02 1736.98
37.69 -191.99 1737.02
37.69 -191.99 1737.04
43.11 -192.12 1736.84
42.82 -192.24 1737.06
42.65 -192.74 1737.05
42.85 -192.53 1736.90
42.85 -192.45 1736.94
33.06 -192.98 1737.01
33.06 -192.80 1736.92
33.10 -192.70 1736.89
42.70 -192.80 1736.94
42.57 -192.92 1737.04
33.00 -193.39 1737.07
33.16 -193.07 1737.13
42.32 -193.34 1737.11
42.21 -193.21 1737.32
42.45 -193.09 1737.10
33.07 -193.45 1737.15
42.22 -193.57 1737.05
42.16 -193.73 1737.03
41.98 -194.13 1737.09
42.06 -193.89 1737.13
41.98 -194.08 1737.03
33.01 -194.41 1737.07
33.12 -194.30 1737.20
33.06 -194.17 1737.15
32.99 -194.09 1737.09
33.10 -194.15 1737.19
41.96 -194.29 1737.16
41.88 -194.40 1737.02
33.09 -194.59 1737.10
33.08 -194.60 1737.09
33.08 -194.83 1736.98
33.09 -194.66 1737.07
41.82 -194.49 1736.99
41.87 -194.76 1737.08
41.84 -194.72 1737.05
41.90 -194.76 1737.11
33.21 -194.98 1737.01
33.26 -195.01 1737.04
33.52 -195.01 1737.28
41.63 -194.99 1736.87
41.37 -195.15 1736.66
41.70 -194.97 1736.93
51.22 -195.02 1736.91
51.21 -195.02 1736.98
51.99 -194.99 1736.94
51.93 -195.06 1737.03
52.28 -195.19 1737.14
52.04 -195.00 1736.93
52.27 -195.09 1737.00
33.78 -195.53 1737.12
33.60 -195.26 1737.16
33.87 -195.57 1737.17
33.63 -195.56 1736.94
41.44 -195.16 1736.71
41.70 -195.26 1736.88
41.36 -195.18 1736.64
49.51 -195.36 1737.12
49.62 -195.23 1737.33
49.96 -195.15 1737.18
50.05 -195.13 1737.14
52.70 -195.32 1737.09
52.57 -195.10 1736.93
52.89 -195.40 1737.09
52.78 -195.23 1737.00
52.84 -195.23 1736.98
53.23 -195.36 1736.94
33.72 -195.69 1736.91
41.94 -195.66 1736.92
42.33 -195.91 1737.02
49.09 -195.68 1737.23
49.08 -195.77 1737.09
49.30 -195.48 1737.23
49.26 -195.48 1737.29
49.46 -195.50 1736.96
52.78 -195.49 1737.18
53.22 -195.47 1737.01
53.11 -195.61 1737.10
53.44 -195.47 1736.93
53.42 -195.49 1736.94
33.91 -195.67 1737.12
34.26 -196.12 1736.94
34.23 -196.04 1737.01
34.20 -195.92 1737.12
34.06 -195.97 1736.93
49.13 -195.83 1736.95
48.86 -196.09 1737.08
48.87 -196.15 1737.01
53.29 -196.12 1737.09
53.27 -195.86 1737.10
53.25 -195.90 1737.10
53.74 -195.90 1736.91
53.77 -196.09 1736.88
53.25 -196.23 1737.10
53.28 -196.21 1737.09
34.47 -196.24 1736.94
34.86 -196.39 1736.91
35.06 -196.41 1736.94
34.68 -196.23 1737.08
34.66 -196.28 1737.00
35.45 -196.38 1737.23
35.38 -196.38 1737.16
35.01 -196.33 1737.10
35.15 -196.38 1737.03
35.71 -196.46 1737.16
35.62 -196.48 1736.99
36.00 -196.54 1737.12
35.85 -196.52 1737.03
36.20 -196.60 1737.13
36.14 -196.57 1737.25
42.87 -196.56 1736.96
42.76 -196.54 1736.91
42.60 -196.45 1736.87
42.69 -196.15 1737.09
43.05 -196.55 1737.06
42.57 -196.64 1736.75
48.90 -196.30 1736.94
48.95 -196.54 1736.84
48.70 -196.28 1737.22
53.34 -196.57 1736.93
53.24 -196.50 1737.01
53.14 -196.27 1737.14
53.25 -196.34 1737.07
53.50 -196.40 1736.93
53.75 -196.31 1736.85
36.58 -196.75 1737.07
36.58 -196.75 1737.00
36.68 -196.76 1736.67
36.87 -196.88 1736.92
43.14 -196.80 1736.99
42.60 -196.68 1736.74
43.01 -196.93 1736.85
42.86 -196.75 1736.85
48.76 -196.62 1737.14
48.83 -196.72 1737.11
48.97 -196.64 1736.87
52.44 -196.94 1737.21
52.77 -196.92 1737.00
53.06 -196.84 1736.90
53.26 -196.64 1736.94
53.30 -196.68 1736.88
37.39 -197.10 1736.92
37.16 -197.03 1737.06
37.53 -197.17 1737.09
37.58 -197.20 1737.14
37.42 -197.14 1737.08
37.84 -197.28 1737.18
37.95 -197.27 1737.04
43.10 -197.01 1736.87
43.35 -197.02 1737.01
43.16 -197.04 1736.89
43.38 -197.08 1737.00
49.07 -197.06 1737.10
49.02 -196.93 1737.01
49.26 -197.22 1737.10
52.13 -197.11 1737.24
52.35 -197.07 1737.10
52.68 -196.99 1736.99
52.44 -197.05 1737.07
38.33 -197.45 1737.01
38.04 -197.33 1737.11
38.32 -197.44 1737.00
43.97 -197.61 1737.03
43.64 -197.38 1736.97
49.40 -197.33 1737.13
49.87 -197.55 1737.20
49.60 -197.43 1737.15
49.57 -197.35 1737.05
50.15 -197.43 1736.93
50.33 -197.45 1736.90
50.17 -197.58 1737.19
50.54 -197.59 1737.08
50.77 -197.55 1736.99
50.52 -197.48 1736.88
51.23 -197.48 1737.17
51.13 -197.51 1737.08
50.99 -197.55 1737.09
51.60 -197.40 1736.98
51.46 -197.42 1736.90
51.78 -197.31 1737.14
51.67 -197.36 1737.13
52.02 -197.25 1737.08
52.21 -197.23 1736.93
38.77 -197.81 1737.11
38.48 -197.63 1737.13
38.73 -197.72 1737.00
39.01 -197.90 1736.97
44.04 -197.84 1736.73
44.04 -197.78 1736.83
44.30 -197.90 1736.88
44.13 -197.72 1737.01
44.34 -197.88 1737.12
44.20 -197.76 1737.14
39.20 -198.06 1737.00
39.09 -198.10 1737.24
39.45 -198.34 1737.25
39.39 -198.30 1737.27
39.39 -198.20 1737.01
44.42 -197.96 1736.91
44.51 -198.04 1736.92
44.67 -198.21 1737.09
39.88 -198.60 1737.10
39.71 -198.46 1736.99
40.22 -198.71 1737.08
40.13 -198.65 1736.90
40.05 -198.64 1736.98
44.74 -198.28 1737.12
44.85 -198.40 1737.14
44.92 -198.50 1737.17
45.05 -198.69 1737.23
45.17 -198.78 1737.18
45.15 -198.74 1737.15
45.44 -198.88 1736.98
40.63 -198.86 1736.85
40.53 -198.85 1737.16
40.45 -198.81 1737.08
40.89 -198.97 1737.31
40.76 -198.93 1737.07
40.75 -198.92 1737.00
45.50 -199.14 1737.27
45.28 -198.85 1737.15
45.32 -198.88 1737.14
41.12 -199.07 1736.93
40.99 -199.02 1737.33
41.10 -199.08 1737.24
41.48 -199.29 1737.03
41.50 -199.29 1736.97
45.70 -199.26 1737.24
45.55 -199.09 1737.15
45.73 -199.18 1737.11
41.75 -199.51 1737.08
41.85 -199.58 1737.08
41.74 -199.50 1737.09
46.06 -199.48 1737.15
46.29 -199.56 1736.93
46.20 -199.59 1737.12
42.28 -200.01 1737.29
42.15 -199.83 1737.05
42.48 -200.15 1736.93
42.17 -199.83 1736.95
42.18 -199.91 1737.26
41.92 -199.67 1737.19
46.45 -199.67 1736.85
46.46 -199.79 1737.06
47.04 -200.10 1736.86
46.53 -199.80 1736.96
46.71 -199.89 1736.90
42.67 -200.35 1737.20
42.70 -200.38 1737.24
42.46 -200.16 1737.18
42.49 -200.19 1737.18
46.69 -199.98 1737.07
46.76 -200.07 1737.05
42.66 -200.32 1736.89
42.90 -200.56 1736.99
42.70 -200.36 1736.94
43.10 -200.75 1736.87
42.85 -200.50 1736.94
42.70 -200.37 1737.03
42.80 -200.47 1737.24
42.73 -200.39 1736.97
42.77 -200.44 1737.21
46.88 -200.44 1737.13
47.16 -200.58 1737.04
47.05 -200.30 1736.96
47.08 -200.17 1736.87
46.96 -200.90 1737.16
47.06 -201.06 1737.13
47.10 -201.04 1737.11
47.08 -200.67 1737.09
47.39 -201.29 1737.03
47.22 -201.19 1737.08
47.39 -201.29 1737.03
47.47 -201.46 1737.00
44.24 -201.78 1736.97
44.30 -201.82 1736.99
44.03 -201.61 1736.99
44.10 -201.68 1736.96
46.60 -201.66 1737.25
47.12 -201.28 1737.11
47.00 -201.54 1737.13
47.13 -201.38 1737.10
47.59 -201.55 1736.97
47.59 -201.68 1736.97
44.61 -202.02 1736.99
44.83 -202.01 1737.16
44.43 -201.92 1736.99
44.98 -202.16 1737.07
45.03 -202.20 1737.06
45.07 -202.02 1737.20
46.43 -201.76 1737.27
46.83 -201.81 1737.15
46.84 -201.73 1737.16
46.94 -201.92 1737.11
47.24 -201.69 1737.05
47.00 -201.85 1737.10
47.64 -202.02 1736.94
47.30 -201.82 1737.02
47.63 -202.10 1736.93
47.18 -201.95 1737.04
44.99 -202.28 1736.90
45.20 -202.21 1737.08
45.22 -202.32 1736.99
45.07 -202.34 1736.84
45.40 -202.26 1737.07
45.46 -202.12 1737.21
46.48 -202.12 1737.17
46.53 -202.39 1737.08
46.78 -202.04 1737.13
46.80 -202.33 1737.05
46.84 -202.08 1737.10
47.06 -202.50 1736.97
47.04 -202.28 1737.02
47.13 -202.10 1737.04
47.24 -202.10 1737.01
47.14 -202.35 1736.98
47.32 -202.46 1736.93
45.65 -202.45 1736.99
45.78 -202.60 1736.90
45.94 -202.38 1737.10
45.95 -202.41 1737.07
46.35 -202.54 1737.03
46.23 -202.52 1737.05
46.12 -202.51 1737.03
46.15 -202.53 1737.02
46.82 -202.58 1736.99
46.61 -202.66 1736.97
46.68 -202.62 1736.99
41.14 -191.19 1737.25
40.95 -191.17 1737.19
41.03 -191.14 1737.19
41.65 -191.22 1737.35
41.34 -191.24 1737.34
41.63 -191.15 1737.29
41.85 -191.20 1737.33
42.37 -191.28 1737.22
42.11 -191.12 1737.21
39.05 -191.62 1737.36
39.40 -191.47 1737.22
39.64 -191.49 1737.40
39.64 -191.43 1737.22
40.13 -191.49 1737.45
40.06 -191.47 1737.40
40.05 -191.45 1737.37
40.19 -191.39 1737.25
40.38 -191.47 1737.41
40.57 -191.23 1737.14
40.59 -191.36 1737.32
41.12 -191.38 1737.43
40.85 -191.36 1737.38
41.24 -191.37 1737.43
41.58 -191.44 1737.47
41.63 -191.34 1737.43
41.71 -191.45 1737.47
42.08 -191.65 1737.48
41.98 -191.49 1737.44
42.11 -191.66 1737.47
42.36 -191.52 1737.34
42.51 -191.51 1737.25
42.37 -191.61 1737.37
34.74 -192.15 1737.52
34.68 -192.03 1737.41
34.44 -192.01 1737.36
34.69 -192.35 1737.67
35.08 -192.21 1737.65
34.92 -192.03 1737.46
35.04 -192.11 1737.55
35.11 -191.92 1737.38
35.23 -192.17 1737.62
35.06 -191.93 1737.39
35.12 -192.07 1737.53
35.38 -192.22 1737.66
35.36 -191.83 1737.28
35.46 -191.84 1737.29
35.41 -191.81 1737.26
35.47 -191.81 1737.25
35.56 -191.90 1737.34
35.82 -192.03 1737.43
35.86 -192.08 1737.50
38.21 -191.94 1737.47
38.34 -191.85 1737.34
38.40 -191.83 1737.31
38.37 -191.88 1737.45
38.71 -191.74 1737.30
42.20 -191.87 1737.48
42.21 -192.01 1737.50
42.28 -192.11 1737.48
42.44 -191.84 1737.37
42.50 -192.02 1737.33
42.69 -192.22 1737.17
42.35 -192.19 1737.43
33.85 -192.09 1737.07
33.84 -192.35 1737.27
33.96 -192.05 1737.12
34.13 -192.16 1737.32
34.20 -192.20 1737.41
34.43 -192.35 1737.60
34.32 -192.27 1737.51
35.94 -192.06 1737.47
36.31 -192.05 1737.43
36.54 -192.09 1737.45
36.69 -192.09 1737.44
36.71 -192.05 1737.31
37.03 -192.10 1737.43
37.28 -192.10 1737.43
37.29 -192.04 1737.11
37.36 -192.11 1737.43
37.38 -192.05 1737.22
37.50 -192.10 1737.50
37.85 -192.01 1737.39
38.01 -191.98 1737.41
42.33 -192.44 1737.43
42.38 -192.48 1737.39
42.48 -192.48 1737.31
42.64 -192.56 1737.13
42.53 -192.67 1737.22
33.63 -192.92 1737.46
33.70 -192.82 1737.46
33.69 -192.63 1737.36
33.45 -192.71 1737.20
33.34 -192.84 1737.18
33.36 -192.62 1737.07
42.30 -192.95 1737.35
42.51 -192.84 1737.18
33.24 -193.18 1737.23
33.29 -193.11 1737.26
33.34 -193.16 1737.31
33.23 -193.34 1737.27
33.49 -193.06 1737.40
33.48 -193.11 1737.41
42.09 -193.45 1737.36
33.18 -193.71 1737.26
33.11 -193.72 1737.20
33.42 -193.51 1737.44
33.10 -193.87 1737.20
33.22 -193.73 1737.28
33.47 -194.04 1737.51
33.39 -193.75 1737.43
33.51 -193.96 1737.54
42.00 -193.70 1737.39
42.12 -193.49 1737.30
42.18 -193.55 1737.20
41.95 -193.96 1737.50
41.97 -194.09 1737.49
33.03 -193.96 1737.13
33.24 -194.04 1737.32
33.15 -194.00 1737.24
33.29 -194.23 1737.35
42.08 -194.44 1737.53
41.94 -194.44 1737.17
33.29 -194.58 1737.30
33.27 -194.79 1737.18
42.03 -194.69 1737.31
41.98 -194.63 1737.22
42.14 -194.55 1737.53
42.12 -194.81 1737.38
42.12 -194.59 1737.49
33.56 -194.85 1737.42
33.50 -194.81 1737.39
42.35 -195.13 1737.40
42.38 -195.09 1737.45
42.47 -194.98 1737.54
50.06 -195.08 1737.41
50.18 -195.08 1737.22
50.46 -195.03 1737.33
50.64 -195.01 1737.32
50.94 -195.02 1737.23
50.70 -195.00 1737.19
51.19 -195.07 1737.24
51.19 -195.09 1737.32
51.37 -195.18 1737.44
51.50 -195.03 1737.07
51.60 -195.14 1737.23
33.99 -195.16 1737.56
33.96 -195.30 1737.43
34.18 -195.23 1737.66
33.86 -195.19 1737.44
41.95 -195.08 1737.13
41.82 -195.19 1737.00
41.94 -195.38 1737.03
41.96 -195.24 1737.09
42.03 -195.08 1737.19
42.18 -195.18 1737.26
42.29 -195.19 1737.33
42.38 -195.26 1737.37
42.63 -195.41 1737.42
42.87 -195.50 1737.45
42.81 -195.54 1737.42
49.84 -195.15 1737.33
51.74 -195.52 1737.57
51.89 -195.56 1737.54
51.68 -195.42 1737.52
51.84 -195.37 1737.40
51.71 -195.10 1737.13
51.83 -195.18 1737.24
52.11 -195.45 1737.37
52.29 -195.42 1737.31
52.17 -195.24 1737.21
34.14 -195.77 1737.22
34.29 -195.92 1737.19
34.23 -195.84 1737.23
34.25 -195.47 1737.55
34.34 -195.68 1737.47
34.28 -195.58 1737.49
34.06 -195.55 1737.34
41.97 -195.48 1737.01
42.07 -195.63 1737.00
42.28 -195.63 1737.13
42.32 -195.50 1737.23
42.48 -195.68 1737.22
42.72 -195.61 1737.35
42.70 -195.79 1737.25
42.73 -195.73 1737.29
49.00 -195.70 1737.32
49.02 -195.72 1737.26
51.62 -195.73 1737.70
51.87 -195.78 1737.61
52.42 -195.57 1737.35
52.63 -195.58 1737.28
52.60 -195.44 1737.22
52.41 -195.28 1737.17
52.71 -195.69 1737.29
34.64 -196.11 1737.22
34.54 -195.92 1737.40
34.84 -196.17 1737.25
34.61 -195.93 1737.43
34.61 -195.94 1737.43
43.53 -195.81 1737.47
43.37 -195.82 1737.44
43.43 -195.94 1737.42
43.76 -195.69 1737.55
43.98 -195.74 1737.56
43.85 -195.83 1737.52
43.95 -195.95 1737.50
48.68 -196.00 1737.40
48.72 -196.09 1737.29
48.80 -195.87 1737.36
52.14 -195.66 1737.47
52.77 -195.75 1737.28
52.68 -195.82 1737.33
53.00 -196.03 1737.21
52.95 -195.81 1737.22
52.97 -196.15 1737.22
52.55 -196.01 1737.40
35.10 -196.14 1737.51
35.09 -196.24 1737.33
35.80 -196.39 1737.55
35.80 -196.41 1737.47
35.86 -196.44 1737.43
35.86 -196.43 1737.47
42.83 -195.94 1737.23
43.02 -196.03 1737.27
43.06 -195.91 1737.34
42.62 -196.06 1737.10
43.09 -196.15 1737.26
43.10 -196.31 1737.20
42.89 -196.06 1737.21
43.35 -196.01 1737.38
43.25 -196.25 1737.27
43.33 -196.43 1737.23
43.12 -196.00 1737.33
43.42 -196.50 1737.25
43.83 -196.35 1737.45
43.86 -196.47 1737.43
43.94 -196.08 1737.49
43.95 -196.10 1737.49
44.19 -196.03 1737.55
44.06 -196.03 1737.52
44.23 -195.92 1737.57
48.54 -196.31 1737.39
48.50 -196.45 1737.41
52.39 -196.46 1737.44
52.38 -196.38 1737.45
52.34 -196.39 1737.47
52.29 -196.36 1737.49
52.25 -196.43 1737.50
52.74 -196.44 1737.28
52.74 -196.41 1737.29
52.19 -196.57 1737.51
52.52 -196.63 1737.32
36.26 -196.61 1737.24
36.38 -196.62 1737.45
36.85 -196.88 1737.15
36.80 -196.84 1737.29
36.51 -196.71 1737.16
36.48 -196.67 1737.39
36.93 -196.91 1737.26
43.44 -196.63 1737.25
43.46 -196.54 1737.26
43.77 -196.78 1737.38
43.98 -196.85 1737.54
43.95 -196.62 1737.48
48.48 -196.62 1737.46
48.54 -196.87 1737.47
48.59 -196.92 1737.43
48.44 -196.88 1737.57
52.02 -196.85 1737.49
51.97 -196.93 1737.48
52.11 -196.61 1737.53
52.39 -196.94 1737.24
52.59 -196.80 1737.21
52.25 -196.77 1737.39
36.91 -196.88 1737.41
37.69 -197.25 1737.32
37.62 -197.22 1737.36
37.21 -197.05 1737.24
43.71 -196.97 1737.33
43.69 -197.20 1737.22
43.42 -196.97 1737.09
43.57 -196.82 1737.29
43.51 -197.08 1737.10
43.85 -197.00 1737.44
43.96 -197.17 1737.50
48.64 -197.00 1737.47
48.70 -197.05 1737.46
48.68 -196.93 1737.36
49.14 -197.21 1737.21
51.83 -197.06 1737.48
51.60 -197.18 1737.50
51.64 -197.16 1737.49
52.11 -197.11 1737.26
38.37 -197.60 1737.39
38.31 -197.55 1737.33
38.00 -197.40 1737.33
38.31 -197.52 1737.16
44.00 -197.40 1737.45
44.13 -197.62 1737.39
43.86 -197.37 1737.25
43.81 -197.42 1737.12
43.90 -197.49 1737.13
49.11 -197.36 1737.48
49.52 -197.45 1737.24
49.54 -197.49 1737.35
49.21 -197.27 1737.22
50.94 -197.45 1737.46
50.79 -197.47 1737.52
51.24 -197.43 1737.34
50.87 -197.54 1737.27
51.07 -197.49 1737.31
51.42 -197.29 1737.47
51.68 -197.26 1737.35
38.48 -197.67 1737.31
38.55 -197.72 1737.24
38.76 -197.89 1737.34
38.71 -197.86 1737.46
44.23 -197.76 1737.24
44.32 -197.87 1737.52
44.27 -197.79 1737.38
49.87 -197.58 1737.29
49.74 -197.52 1737.23
50.20 -197.60 1737.46
50.45 -197.57 1737.30
50.03 -197.59 1737.29
50.77 -197.56 1737.26
50.63 -197.56 1737.28
39.23 -198.16 1737.52
39.01 -198.04 1737.33
38.81 -197.93 1737.49
39.04 -198.03 1737.59
39.41 -198.29 1737.67
39.29 -198.19 1737.72
44.55 -198.11 1737.23
44.61 -198.17 1737.25
44.69 -198.32 1737.35
39.47 -198.37 1737.32
39.68 -198.50 1737.43
39.53 -198.40 1737.41
39.48 -198.36 1737.43
39.83 -198.59 1737.19
40.15 -198.63 1737.77
39.93 -198.61 1737.51
40.14 -198.61 1737.80
39.88 -198.60 1737.43
44.64 -198.37 1737.49
40.29 -198.76 1737.40
40.35 -198.79 1737.30
40.20 -198.63 1737.84
40.28 -198.68 1737.75
40.85 -198.96 1737.42
40.56 -198.85 1737.39
44.89 -198.85 1737.53
44.83 -198.63 1737.43
44.89 -198.52 1737.28
41.18 -199.15 1737.44
41.26 -199.18 1737.25
41.21 -199.13 1737.64
41.30 -199.20 1737.12
45.10 -199.02 1737.46
45.03 -199.06 1737.54
45.29 -199.14 1737.41
45.26 -199.18 1737.45
41.41 -199.30 1737.44
41.81 -199.61 1737.37
41.69 -199.51 1737.39
45.48 -199.45 1737.49
45.37 -199.29 1737.46
45.58 -199.41 1737.40
45.80 -199.32 1737.22
42.17 -199.92 1737.53
42.25 -199.99 1737.42
42.00 -199.78 1737.35
42.30 -199.98 1737.71
42.34 -200.01 1737.73
46.09 -199.74 1737.32
46.11 -199.71 1737.28
45.85 -199.61 1737.36
45.79 -199.61 1737.39
46.24 -199.72 1737.22
42.61 -200.26 1737.58
42.67 -200.35 1737.48
42.43 -200.12 1737.45
45.94 -199.80 1737.43
46.08 -199.99 1737.42
46.08 -200.04 1737.43
46.19 -200.19 1737.43
46.13 -200.35 1737.47
46.62 -200.06 1737.15
46.52 -200.09 1737.24
43.26 -200.86 1737.37
42.89 -200.56 1737.40
43.21 -200.83 1737.34
46.28 -200.50 1737.41
46.25 -201.06 1737.41
46.25 -200.42 1737.42
46.39 -200.65 1737.36
46.34 -200.98 1737.37
43.28 -200.87 1737.38
43.33 -200.86 1737.46
43.43 -200.89 1737.52
46.88 -201.05 1737.19
46.96 -201.11 1737.17
46.63 -200.76 1737.27
46.59 -201.02 1737.29
46.94 -200.98 1737.17
43.74 -201.21 1737.26
43.95 -201.53 1737.01
43.91 -201.36 1737.23
43.97 -201.47 1737.13
43.52 -201.08 1737.20
43.50 -201.02 1737.27
43.52 -201.05 1737.25
46.46 -201.24 1737.33
46.93 -201.18 1737.18
46.49 -201.17 1737.32
46.76 -201.48 1737.22
44.27 -201.52 1737.33
44.04 -201.36 1737.37
44.43 -201.34 1737.47
44.29 -201.59 1737.26
44.07 -201.44 1737.29
44.35 -201.62 1737.28
44.91 -201.56 1737.44
44.72 -201.64 1737.35
44.83 -201.36 1737.52
45.10 -201.28 1737.55
45.06 -201.32 1737.54
45.09 -201.53 1737.46
45.30 -201.47 1737.48
45.36 -201.23 1737.57
45.27 -201.72 1737.38
45.23 -201.80 1737.35
45.46 -201.66 1737.40
45.74 -201.92 1737.29
45.67 -201.69 1737.39
45.71 -201.63 1737.41
45.95 -201.54 1737.39
45.90 -201.57 1737.39
45.68 -201.51 1737.45
45.72 -201.46 1737.45
46.05 -201.69 1737.34
46.26 -201.54 1737.34
46.53 -201.45 1737.29
46.46 -201.42 1737.31
46.59 -201.58 1737.26
44.81 -201.82 1737.27
44.65 -201.79 1737.25
45.03 -201.69 1737.39
45.25 -201.97 1737.27
46.28 -201.90 1737.26
46.32 -201.78 1737.28
45.68 -201.97 1737.27
45.61 -202.01 1737.26
46.32 -202.00 1737.22
46.21 -202.04 1737.22
46.47 -202.00 1737.20
45.88 -202.23 1737.18
45.96 -201.91 1737.30
39.27 -191.56 1737.42
39.43 -191.65 1737.61
39.41 -191.64 1737.59
39.70 -191.71 1737.68
39.91 -191.80 1737.76
40.29 -191.65 1737.62
40.34 -191.60 1737.58
40.41 -191.58 1737.56
40.05 -191.63 1737.60
40.23 -191.82 1737.76
40.41 -191.66 1737.63
40.22 -191.87 1737.80
41.01 -191.75 1737.64
40.81 -191.70 1737.62
40.87 -191.76 1737.66
41.18 -191.42 1737.46
41.21 -191.77 1737.65
41.08 -191.76 1737.64
40.65 -191.57 1737.54
40.91 -191.52 1737.51
41.40 -191.53 1737.52
41.43 -191.61 1737.56
38.40 -191.99 1737.66
38.62 -191.92 1737.64
38.62 -191.87 1737.58
38.94 -191.68 1737.40
38.88 -191.81 1737.59
39.06 -191.78 1737.62
39.13 -191.71 1737.55
40.42 -192.07 1737.91
40.34 -191.98 1737.87
40.62 -192.03 1737.89
41.19 -191.89 1737.72
41.09 -191.94 1737.75
41.04 -191.89 1737.74
41.73 -191.70 1737.57
41.71 -192.05 1737.68
41.89 -191.76 1737.56
41.84 -191.99 1737.64
42.01 -192.15 1737.59
42.04 -192.07 1737.57
35.37 -192.49 1737.87
35.38 -192.50 1737.89
35.44 -192.41 1737.81
35.42 -192.37 1737.78
36.10 -192.62 1737.98
36.04 -192.60 1737.97
36.13 -192.68 1738.03
35.78 -192.16 1737.60
36.00 -192.54 1737.91
36.29 -192.51 1737.91
36.37 -192.46 1737.87
36.23 -192.57 1737.95
35.91 -192.17 1737.62
36.15 -192.43 1737.84
36.34 -192.29 1737.73
36.50 -192.25 1737.70
36.20 -192.14 1737.58
36.54 -192.20 1737.62
36.65 -192.14 1737.55
36.90 -192.14 1737.51
37.01 -192.13 1737.51
37.19 -192.24 1737.70
37.57 -192.14 1737.59
37.43 -192.13 1737.53
37.60 -192.17 1737.66
37.45 -192.16 1737.60
37.61 -192.38 1737.93
38.00 -192.12 1737.72
38.14 -192.03 1737.62
38.28 -192.08 1737.76
41.54 -192.09 1737.72
41.61 -192.03 1737.69
41.65 -192.20 1737.73
41.43 -192.47 1737.84
41.74 -192.18 1737.70
42.08 -192.30 1737.58
41.97 -192.22 1737.62
41.93 -192.19 1737.63
34.01 -192.65 1737.58
33.98 -192.60 1737.54
34.37 -192.51 1737.67
34.24 -192.35 1737.53
34.52 -192.48 1737.71
36.81 -192.30 1737.76
41.98 -192.74 1737.64
42.11 -192.58 1737.58
41.82 -192.59 1737.71
42.21 -192.52 1737.51
42.25 -192.67 1737.47
42.27 -192.44 1737.47
33.88 -192.81 1737.59
33.92 -192.95 1737.67
34.03 -192.93 1737.72
41.77 -192.88 1737.74
41.83 -193.08 1737.70
41.99 -192.89 1737.63
41.93 -193.08 1737.65
42.26 -192.88 1737.42
33.89 -193.37 1737.74
33.96 -193.34 1737.78
33.93 -193.60 1737.79
33.76 -193.10 1737.62
33.84 -193.13 1737.68
41.66 -193.27 1737.80
41.78 -193.21 1737.73
41.91 -193.36 1737.59
41.99 -193.45 1737.50
33.70 -193.69 1737.65
33.86 -193.76 1737.76
33.66 -194.00 1737.64
41.76 -193.30 1737.74
41.71 -193.32 1737.78
41.96 -193.47 1737.52
41.79 -193.57 1737.69
41.83 -193.64 1737.65
33.87 -194.37 1737.74
33.83 -194.11 1737.73
33.84 -194.28 1737.73
33.92 -193.88 1737.79
41.92 -193.96 1737.55
41.88 -193.85 1737.60
33.53 -194.40 1737.56
33.48 -194.32 1737.52
33.66 -194.26 1737.64
41.92 -194.19 1737.75
42.03 -194.37 1737.62
42.08 -194.42 1737.68
33.53 -194.53 1737.54
33.70 -194.56 1737.63
42.12 -194.47 1737.63
42.34 -194.65 1737.70
42.38 -194.66 1737.75
33.81 -194.78 1737.59
33.65 -194.95 1737.43
34.09 -194.91 1737.71
34.08 -194.91 1737.71
34.03 -194.82 1737.71
33.82 -195.07 1737.48
34.09 -194.79 1737.76
42.45 -194.81 1737.64
42.61 -195.07 1737.56
42.50 -194.90 1737.60
42.77 -195.16 1737.58
42.89 -195.18 1737.60
49.88 -195.11 1737.68
49.63 -195.17 1737.57
49.95 -195.16 1737.82
50.20 -195.15 1737.80
50.59 -195.15 1737.71
50.30 -195.14 1737.76
50.38 -195.04 1737.51
50.79 -195.09 1737.57
50.87 -195.10 1737.58
50.76 -195.17 1737.72
43.21 -195.60 1737.49
43.15 -195.30 1737.62
43.35 -195.55 1737.53
42.78 -195.24 1737.54
43.04 -195.68 1737.42
42.78 -195.24 1737.54
43.72 -195.20 1737.73
43.91 -195.29 1737.70
43.44 -195.24 1737.68
43.45 -195.28 1737.67
44.04 -195.10 1737.80
44.05 -195.27 1737.71
44.17 -195.18 1737.77
44.15 -195.30 1737.71
48.97 -195.51 1737.68
49.25 -195.38 1737.65
49.48 -195.27 1737.53
49.40 -195.31 1737.56
51.22 -195.39 1737.79
51.13 -195.14 1737.54
51.50 -195.43 1737.63
51.52 -195.43 1737.62
51.56 -195.49 1737.65
34.62 -195.71 1737.69
34.41 -195.58 1737.59
44.10 -195.46 1737.66
43.88 -195.48 1737.62
44.04 -195.41 1737.66
44.26 -195.30 1737.74
44.32 -195.52 1737.68
44.31 -195.71 1737.62
44.95 -195.38 1737.81
45.08 -195.36 1737.83
44.91 -195.37 1737.81
44.83 -195.34 1737.81
45.06 -195.64 1737.76
45.07 -195.37 1737.83
44.72 -195.58 1737.72
44.74 -195.58 1737.72
44.84 -195.78 1737.69
45.54 -195.58 1737.84
45.35 -195.66 1737.80
45.51 -195.62 1737.83
48.24 -195.69 1737.86
48.37 -195.74 1737.78
48.85 -195.56 1737.72
48.75 -195.76 1737.54
49.00 -195.59 1737.50
49.01 -195.55 1737.54
51.23 -195.52 1737.84
51.33 -195.45 1737.76
51.53 -195.60 1737.71
51.57 -195.58 1737.69
34.76 -195.75 1737.77
34.72 -195.91 1737.56
34.69 -195.81 1737.65
35.10 -196.03 1737.70
35.02 -195.89 1737.83
44.85 -195.91 1737.68
45.18 -195.83 1737.73
44.59 -195.87 1737.64
44.78 -196.09 1737.66
44.83 -196.17 1737.67
45.06 -196.18 1737.71
45.12 -196.20 1737.72
44.91 -196.41 1737.74
44.89 -196.29 1737.69
47.88 -196.05 1737.79
47.91 -195.86 1737.85
48.10 -195.84 1737.79
48.06 -196.13 1737.72
48.53 -195.87 1737.61
48.14 -196.09 1737.69
48.07 -196.15 1737.70
48.56 -195.87 1737.59
52.22 -195.90 1737.51
51.79 -195.96 1737.70
52.00 -195.94 1737.61
51.95 -195.89 1737.62
35.33 -196.24 1737.46
35.27 -196.08 1737.74
35.42 -196.16 1737.69
35.51 -196.26 1737.57
35.62 -196.32 1737.53
35.97 -196.42 1737.66
36.44 -196.55 1737.80
36.16 -196.51 1737.59
44.28 -196.50 1737.58
44.46 -196.36 1737.59
44.11 -196.31 1737.52
44.35 -195.94 1737.60
44.47 -195.95 1737.62
44.29 -196.11 1737.57
44.30 -196.27 1737.56
44.60 -196.59 1737.71
47.58 -196.34 1737.87
47.48 -196.13 1737.87
47.50 -196.32 1737.88
47.84 -196.62 1737.80
47.93 -196.47 1737.75
47.61 -196.20 1737.84
47.85 -196.30 1737.77
48.13 -196.45 1737.66
48.11 -196.21 1737.66
48.19 -196.33 1737.63
48.43 -196.25 1737.51
51.94 -196.15 1737.64
52.17 -196.30 1737.54
52.20 -196.32 1737.53
51.99 -196.23 1737.62
52.18 -196.07 1737.55
36.65 -196.73 1737.54
36.49 -196.58 1737.77
36.89 -196.77 1737.75
44.23 -196.75 1737.63
44.13 -196.73 1737.59
44.37 -196.86 1737.77
44.38 -196.90 1737.80
44.54 -196.68 1737.74
44.67 -196.70 1737.79
48.30 -196.74 1737.63
48.29 -196.50 1737.57
51.62 -196.78 1737.71
51.72 -196.75 1737.67
51.52 -196.90 1737.71
51.58 -196.89 1737.69
36.94 -196.84 1737.60
37.09 -196.86 1737.77
37.69 -197.23 1737.44
37.40 -197.09 1737.57
37.32 -196.99 1737.78
37.50 -197.09 1737.80
37.79 -197.28 1737.47
37.81 -197.28 1737.61
44.02 -197.03 1737.57
44.25 -196.98 1737.75
48.41 -196.98 1737.67
48.52 -197.07 1737.65
51.18 -197.12 1737.74
51.05 -197.25 1737.71
51.39 -197.05 1737.70
51.53 -197.12 1737.58
51.59 -197.13 1737.55
37.84 -197.31 1737.48
38.30 -197.57 1737.62
38.06 -197.44 1737.62
38.45 -197.66 1737.57
38.51 -197.60 1737.83
44.13 -197.40 1737.73
44.08 -197.45 1737.62
48.75 -197.30 1737.70
48.81 -197.33 1737.70
49.22 -197.45 1737.53
48.96 -197.34 1737.58
49.46 -197.54 1737.58
49.55 -197.57 1737.59
49.80 -197.56 1737.72
49.66 -197.58 1737.59
50.39 -197.41 1737.84
50.86 -197.30 1737.76
51.07 -197.31 1737.64
51.07 -197.35 1737.57
38.79 -197.91 1737.52
38.64 -197.70 1737.80
44.17 -197.56 1737.68
44.23 -197.72 1737.56
44.24 -197.68 1737.72
49.95 -197.59 1737.60
50.53 -197.49 1737.62
50.21 -197.48 1737.80
50.35 -197.56 1737.53
50.27 -197.55 1737.60
38.84 -197.94 1737.53
38.82 -197.87 1737.66
44.36 -197.98 1737.69
44.53 -198.24 1737.57
39.78 -198.47 1737.87
39.77 -198.47 1737.83
40.17 -198.59 1737.95
40.06 -198.55 1737.93
44.48 -198.35 1737.73
40.53 -198.77 1737.77
40.75 -198.85 1737.78
40.82 -198.83 1737.92
40.81 -198.93 1737.53
40.75 -198.90 1737.57
40.96 -198.93 1737.76
41.01 -198.95 1737.81
44.74 -198.77 1737.61
44.71 -198.54 1737.54
44.76 -198.80 1737.60
41.42 -199.27 1737.72
41.36 -199.25 1737.47
44.75 -199.18 1737.75
44.93 -199.14 1737.63
41.42 -199.30 1737.50
41.57 -199.43 1737.50
45.09 -199.28 1737.60
45.03 -199.63 1737.73
45.23 -199.62 1737.64
45.42 -199.48 1737.53
45.34 -199.67 1737.62
45.36 -199.48 1737.55
41.92 -199.72 1737.51
41.73 -199.56 1737.52
41.71 -199.53 1737.52
42.17 -199.88 1737.75
45.18 -200.00 1737.74
45.08 -199.97 1737.76
45.02 -200.08 1737.79
45.52 -199.87 1737.59
45.27 -199.89 1737.69
45.39 -199.74 1737.62
45.24 -199.94 1737.71
42.89 -200.42 1737.64
45.62 -200.21 1737.62
45.70 -200.07 1737.56
45.92 -200.08 1737.49
45.85 -200.04 1737.50
45.85 -200.11 1737.52
43.15 -200.69 1737.59
42.90 -200.55 1737.46
43.18 -200.63 1737.68
44.97 -200.23 1737.79
45.16 -200.21 1737.75
44.95 -200.44 1737.76
45.04 -200.68 1737.71
45.09 -200.53 1737.71
45.37 -200.34 1737.68
45.24 -200.42 1737.70
45.39 -200.29 1737.68
45.70 -200.63 1737.61
45.93 -200.40 1737.54
45.48 -200.22 1737.67
46.16 -200.92 1737.45
46.16 -200.92 1737.45
46.00 -200.62 1737.51
45.96 -200.75 1737.52
43.61 -200.88 1737.64
43.71 -200.69 1737.77
43.80 -200.62 1737.82
43.27 -200.76 1737.61
43.93 -200.90 1737.67
43.88 -200.67 1737.79
43.96 -200.80 1737.73
43.88 -201.19 1737.46
44.10 -201.12 1737.57
44.25 -200.71 1737.78
44.18 -200.92 1737.70
44.24 -200.89 1737.70
44.52 -200.77 1737.73
45.15 -200.80 1737.68
45.51 -200.78 1737.63
45.21 -200.97 1737.64
44.94 -200.77 1737.71
45.59 -201.05 1737.58
45.46 -201.03 1737.60
46.10 -201.09 1737.46
45.81 -200.84 1737.57
44.40 -201.22 1737.56
44.14 -201.12 1737.57
44.66 -200.79 1737.72
44.72 -200.98 1737.65
44.54 -200.86 1737.70
44.31 -201.07 1737.63
44.83 -201.10 1737.61
44.87 -201.23 1737.57
44.74 -201.05 1737.62
44.82 -200.76 1737.72
45.59 -201.22 1737.55
45.72 -201.33 1737.50
46.15 -201.12 1737.44
45.85 -201.22 1737.50
39.32 -191.76 1737.72
39.34 -192.05 1737.93
39.41 -191.95 1737.86
39.38 -191.86 1737.80
39.54 -192.01 1737.91
37.88 -192.33 1737.93
38.16 -192.24 1737.90
38.22 -192.32 1737.99
38.32 -192.32 1737.99
38.28 -192.29 1737.96
38.70 -192.20 1737.93
38.79 -192.23 1737.97
39.57 -192.51 1738.12
39.32 -192.49 1738.11
39.03 -192.46 1738.10
39.61 -192.62 1738.16
39.16 -192.26 1738.03
39.30 -192.30 1738.04
39.04 -192.16 1737.96
39.14 -192.08 1737.92
39.15 -192.06 1737.91
39.97 -191.92 1737.85
39.57 -192.23 1738.00
39.67 -192.12 1737.95
39.79 -192.32 1738.03
39.96 -191.99 1737.88
40.02 -192.45 1738.08
40.08 -192.00 1737.89
39.96 -192.09 1737.92
39.97 -192.27 1738.00
40.25 -192.29 1738.01
40.08 -192.55 1738.11
39.97 -192.57 1738.13
40.34 -192.49 1738.07
40.70 -192.37 1737.99
40.60 -192.17 1737.94
41.25 -192.16 1737.80
41.06 -192.08 1737.81
41.09 -192.17 1737.84
34.84 -192.42 1737.76
34.89 -192.59 1737.89
35.27 -192.48 1737.87
35.27 -192.50 1737.88
36.83 -192.68 1738.07
36.76 -192.55 1737.96
37.25 -192.72 1738.13
36.55 -192.44 1737.86
36.47 -192.60 1737.99
36.72 -192.48 1737.91
36.98 -192.37 1737.84
36.95 -192.39 1737.85
37.10 -192.53 1737.97
37.24 -192.66 1738.09
37.74 -192.61 1738.12
37.72 -192.55 1738.07
37.52 -192.53 1738.03
37.54 -192.40 1737.93
37.99 -192.52 1738.09
37.80 -192.46 1738.03
41.01 -192.44 1737.94
41.24 -192.64 1737.93
41.42 -192.67 1737.88
34.07 -192.98 1737.76
34.57 -192.55 1737.76
34.70 -192.86 1737.98
34.62 -192.78 1737.90
34.31 -192.69 1737.74
34.33 -192.71 1737.76
34.70 -192.50 1737.79
34.77 -192.68 1737.90
34.73 -192.68 1737.89
34.86 -192.99 1738.07
35.12 -193.03 1738.12
35.11 -192.82 1738.04
35.15 -192.74 1738.01
37.16 -192.75 1738.14
37.04 -192.79 1738.16
36.76 -192.93 1738.22
36.58 -192.96 1738.23
40.77 -192.87 1738.09
40.86 -192.42 1737.96
40.87 -192.41 1737.96
41.37 -192.73 1737.90
34.04 -193.34 1737.83
34.16 -193.16 1737.86
34.08 -193.32 1737.84
34.39 -193.12 1737.95
34.47 -193.40 1738.04
34.70 -193.00 1738.04
34.54 -193.03 1737.99
40.88 -193.22 1738.14
41.26 -192.85 1737.95
41.04 -192.95 1738.03
41.17 -192.99 1738.01
40.94 -193.33 1738.15
41.24 -192.85 1737.95
41.04 -193.45 1738.15
41.49 -192.95 1737.89
41.28 -193.33 1738.02
34.51 -193.43 1738.06
34.64 -193.72 1738.12
34.40 -193.52 1738.02
41.26 -193.55 1738.06
41.09 -193.55 1738.14
41.46 -193.57 1737.95
41.45 -193.48 1737.94
34.14 -194.17 1737.88
34.37 -194.03 1738.00
34.11 -194.21 1737.87
34.12 -194.30 1737.87
34.08 -194.27 1737.85
34.07 -194.21 1737.85
34.57 -194.09 1738.09
34.68 -194.14 1738.13
34.70 -194.37 1738.12
34.50 -194.49 1738.03
34.29 -194.33 1737.94
34.67 -194.56 1738.10
41.64 -194.00 1738.01
41.43 -193.83 1738.05
41.77 -193.96 1737.79
41.92 -194.28 1738.07
41.79 -194.15 1737.92
42.01 -194.35 1737.97
42.15 -194.45 1737.87
42.04 -194.38 1738.07
42.59 -194.57 1738.05
34.22 -195.03 1737.75
34.09 -194.72 1737.78
34.04 -194.60 1737.79
34.21 -194.96 1737.77
34.28 -194.95 1737.81
34.36 -195.05 1737.82
34.62 -194.95 1737.99
34.79 -194.95 1738.09
34.55 -195.05 1737.93
34.68 -194.77 1738.07
34.69 -194.92 1738.04
42.59 -194.68 1737.86
42.76 -194.64 1738.02
42.76 -194.74 1737.90
42.94 -194.94 1737.77
43.03 -194.86 1737.86
42.98 -194.97 1737.76
43.27 -194.80 1737.98
43.31 -195.08 1737.76
43.63 -195.08 1737.79
43.64 -194.97 1737.87
43.34 -194.78 1737.99
43.36 -194.82 1737.96
43.97 -194.85 1738.00
43.86 -195.04 1737.83
44.21 -194.97 1737.90
44.44 -194.87 1738.03
44.37 -194.79 1738.09
44.19 -194.91 1737.96
44.72 -194.88 1738.04
44.74 -195.05 1737.93
45.07 -195.29 1737.86
45.02 -194.96 1738.04
44.93 -195.10 1737.94
45.20 -195.11 1737.99
45.39 -195.07 1738.05
49.68 -195.15 1737.76
34.58 -195.42 1737.83
34.44 -195.39 1737.76
34.86 -195.35 1738.03
35.03 -195.53 1738.05
45.26 -195.23 1737.93
45.47 -195.20 1737.98
45.54 -195.05 1738.09
45.79 -195.13 1738.09
45.99 -195.47 1737.93
45.89 -195.24 1738.04
46.28 -195.34 1738.07
46.10 -195.48 1737.95
48.90 -195.49 1737.85
48.97 -195.49 1737.82
49.07 -195.43 1737.93
49.13 -195.42 1737.75
49.46 -195.27 1737.88
49.60 -195.20 1737.86
49.73 -195.34 1738.04
49.76 -195.24 1737.93
49.95 -195.21 1737.90
50.20 -195.31 1737.99
50.28 -195.42 1738.09
50.34 -195.27 1737.91
50.40 -195.38 1738.01
50.52 -195.33 1737.94
50.91 -195.39 1737.86
50.79 -195.42 1737.92
51.00 -195.39 1737.85
34.99 -195.75 1737.94
46.02 -195.53 1737.92
45.55 -195.78 1737.79
46.18 -195.82 1737.88
45.57 -195.63 1737.83
45.64 -195.40 1737.90
45.62 -195.74 1737.81
46.59 -195.64 1738.01
46.50 -195.85 1737.92
46.32 -195.76 1737.92
46.26 -195.60 1737.95
46.27 -195.50 1737.99
46.84 -195.82 1737.96
46.98 -195.71 1738.00
46.98 -195.58 1738.06
46.68 -195.42 1738.11
46.97 -195.45 1738.14
47.46 -195.63 1738.04
47.45 -195.62 1738.04
47.84 -195.51 1738.10
47.71 -195.83 1737.91
47.58 -195.71 1737.99
47.96 -195.73 1737.90
48.13 -195.66 1737.91
48.40 -195.52 1738.03
48.51 -195.54 1737.99
48.63 -195.51 1737.99
50.91 -195.73 1738.03
50.83 -195.68 1738.04
50.94 -195.87 1738.06
51.23 -195.72 1737.91
35.15 -195.82 1737.95
35.39 -196.08 1737.82
35.53 -196.04 1737.94
35.28 -195.79 1738.03
35.36 -195.81 1738.06
45.61 -196.14 1737.80
45.75 -196.18 1737.82
45.86 -196.11 1737.84
45.73 -195.94 1737.81
45.68 -195.93 1737.81
45.71 -196.00 1737.81
46.19 -196.23 1737.88
46.37 -196.19 1737.90
46.66 -196.08 1737.92
46.57 -196.20 1737.92
47.14 -195.91 1737.96
46.96 -195.92 1737.94
46.85 -196.30 1737.93
46.79 -196.31 1737.93
46.88 -196.06 1737.93
47.21 -196.27 1737.92
47.49 -196.06 1737.87
47.40 -195.77 1737.97
47.22 -195.77 1737.98
51.21 -195.92 1737.96
51.25 -195.97 1737.95
51.24 -195.81 1737.92
35.62 -196.17 1737.85
36.04 -196.31 1737.93
36.02 -196.31 1737.92
36.04 -196.35 1737.86
36.41 -196.47 1737.93
36.46 -196.37 1738.08
36.19 -196.26 1738.06
36.05 -196.15 1738.14
45.13 -196.47 1737.81
45.32 -196.41 1737.82
45.91 -196.30 1737.88
45.80 -196.33 1737.87
45.48 -196.26 1737.79
46.09 -196.32 1737.90
46.08 -196.40 1737.93
46.43 -196.32 1737.93
51.40 -196.21 1737.89
51.52 -196.03 1737.83
51.01 -196.27 1738.06
51.03 -196.03 1738.05
51.10 -196.06 1738.02
51.47 -196.23 1737.85
51.81 -196.28 1737.69
51.85 -196.46 1737.67
51.64 -196.50 1737.77
51.69 -196.10 1737.75
51.92 -196.34 1737.64
36.69 -196.61 1737.88
37.12 -196.71 1738.06
36.78 -196.65 1737.88
37.07 -196.83 1737.85
37.27 -196.75 1738.13
45.08 -196.85 1738.01
44.94 -196.64 1737.85
44.68 -196.91 1737.92
45.30 -196.71 1737.98
45.04 -196.62 1737.86
45.08 -196.59 1737.85
45.43 -196.88 1738.09
45.96 -196.85 1738.13
45.85 -196.71 1738.04
45.34 -196.83 1738.05
45.48 -196.61 1737.95
46.22 -196.61 1738.02
46.39 -196.60 1738.03
46.22 -196.62 1738.02
46.23 -196.55 1738.00
46.49 -196.76 1738.10
46.03 -196.79 1738.11
46.93 -196.51 1738.00
46.75 -196.66 1738.07
46.70 -196.55 1738.03
46.76 -196.66 1738.07
47.15 -196.45 1737.97
47.03 -196.67 1738.06
47.04 -196.77 1738.09
47.31 -196.59 1737.98
47.21 -196.41 1737.93
47.41 -196.72 1738.00
47.50 -196.89 1738.06
47.57 -196.98 1738.08
47.84 -196.80 1737.89
47.79 -196.99 1738.02
51.49 -196.69 1737.79
51.90 -196.62 1737.63
51.56 -196.63 1737.78
51.25 -196.61 1737.93
51.37 -196.65 1737.86
51.94 -196.58 1737.62
37.44 -197.02 1737.86
37.86 -197.25 1737.86
37.81 -197.23 1737.85
37.58 -197.04 1737.96
38.08 -197.29 1738.01
37.93 -197.21 1738.02
44.45 -197.14 1738.02
44.25 -197.10 1737.81
44.52 -197.03 1737.96
44.82 -196.92 1737.97
44.54 -197.05 1737.98
48.01 -196.93 1737.86
48.17 -196.96 1737.78
48.29 -197.00 1737.76
48.07 -197.18 1738.05
48.01 -197.04 1737.93
48.45 -197.28 1737.91
48.41 -197.19 1737.86
51.06 -197.01 1737.88
51.01 -197.04 1737.89
38.00 -197.34 1737.83
38.40 -197.35 1738.14
38.23 -197.37 1738.00
38.78 -197.64 1738.04
38.60 -197.55 1738.00
44.24 -197.28 1737.91
44.23 -197.46 1737.92
48.47 -197.38 1738.05
48.65 -197.46 1738.06
48.65 -197.43 1737.99
49.19 -197.55 1737.88
48.99 -197.53 1737.99
49.51 -197.52 1738.05
49.24 -197.55 1737.94
49.95 -197.46 1737.94
49.65 -197.55 1737.89
49.89 -197.54 1737.83
50.06 -197.42 1737.97
50.20 -197.34 1738.02
50.45 -197.33 1737.91
38.62 -197.61 1737.95
38.89 -197.71 1738.04
44.25 -197.87 1738.02
44.20 -197.60 1737.79
38.87 -197.82 1737.84
38.91 -197.81 1737.90
39.49 -198.05 1738.18
39.33 -197.95 1738.15
39.19 -197.86 1738.14
44.28 -198.00 1738.01
44.18 -198.31 1738.07
44.27 -198.28 1737.96
39.17 -198.08 1737.74
39.30 -198.06 1737.92
39.67 -198.32 1738.02
39.58 -198.12 1738.18
44.32 -198.36 1737.92
44.46 -198.49 1737.80
41.24 -199.06 1737.96
41.12 -198.85 1738.18
40.98 -198.86 1738.07
44.26 -198.66 1738.00
44.34 -198.86 1737.92
44.28 -198.90 1737.98
44.47 -198.81 1737.82
41.38 -199.22 1737.83
41.29 -199.07 1737.99
41.57 -199.18 1738.14
44.56 -199.12 1737.85
44.46 -199.03 1737.88
41.69 -199.35 1737.99
44.23 -199.04 1738.01
44.08 -199.22 1738.06
43.88 -199.44 1738.14
43.98 -199.64 1738.09
44.32 -199.49 1737.99
44.22 -199.21 1738.01
44.50 -199.34 1737.90
44.63 -199.26 1737.83
44.41 -199.19 1737.93
44.86 -199.52 1737.78
44.58 -199.62 1737.90
44.56 -199.60 1737.90
41.87 -199.63 1737.81
42.25 -199.87 1737.89
42.14 -199.85 1737.78
41.98 -199.61 1737.96
42.37 -199.84 1738.00
43.91 -199.87 1738.07
43.77 -200.04 1738.07
44.18 -199.89 1738.00
44.27 -199.66 1738.00
44.44 -199.84 1737.95
44.47 -199.93 1737.94
44.51 -199.76 1737.93
44.56 -199.71 1737.91
44.77 -200.08 1737.86
42.58 -200.10 1737.81
42.62 -199.98 1737.97
42.80 -200.05 1738.00
42.96 -199.91 1738.11
42.82 -199.97 1738.05
42.67 -200.19 1737.78
42.78 -200.25 1737.80
43.16 -200.17 1738.00
43.18 -200.16 1738.01
43.23 -200.38 1737.90
43.04 -200.38 1737.85
43.58 -200.20 1738.03
43.69 -200.32 1737.98
43.84 -200.15 1738.02
43.79 -200.07 1738.06
44.05 -200.29 1737.94
44.31 -200.21 1737.94
44.55 -199.97 1737.92
44.15 -200.03 1738.00
44.69 -200.06 1737.88
43.57 -200.51 1737.88
43.43 -200.31 1737.99
44.83 -200.23 1737.83
44.71 -200.45 1737.81
44.60 -200.26 1737.87
44.32 -200.48 1737.86
44.48 -200.37 1737.87
44.24 -200.52 1737.85
38.18 -192.59 1738.16
38.60 -192.42 1738.09
38.53 -192.49 1738.13
38.41 -192.72 1738.22
38.35 -192.67 1738.21
38.35 -192.87 1738.28
39.33 -192.78 1738.23
39.09 -192.82 1738.24
38.79 -192.66 1738.19
39.22 -192.59 1738.15
38.65 -192.75 1738.22
39.20 -192.88 1738.26
39.34 -192.80 1738.23
39.35 -192.76 1738.22
38.63 -192.67 1738.19
35.27 -193.06 1738.16
35.47 -192.83 1738.08
35.49 -193.10 1738.22
35.64 -192.83 1738.10
35.86 -192.95 1738.19
35.90 -192.87 1738.14
35.82 -192.74 1738.07
36.06 -192.95 1738.20
35.92 -193.08 1738.26
36.16 -193.00 1738.23
36.32 -193.03 1738.24
36.50 -193.11 1738.30
36.50 -192.99 1738.24
37.01 -193.05 1738.30
37.07 -192.94 1738.24
37.01 -193.02 1738.28
37.39 -193.20 1738.38
37.69 -193.04 1738.31
37.80 -192.96 1738.27
37.57 -193.09 1738.32
37.82 -193.14 1738.36
37.60 -192.88 1738.22
38.17 -193.16 1738.38
37.94 -192.66 1738.17
37.61 -192.84 1738.21
37.74 -192.84 1738.22
38.17 -192.99 1738.31
38.16 -192.64 1738.18
38.29 -193.08 1738.36
39.27 -193.18 1738.39
39.15 -193.20 1738.40
38.94 -193.35 1738.46
39.33 -193.07 1738.34
39.26 -192.94 1738.29
38.95 -193.28 1738.43
39.18 -193.40 1738.48
40.39 -192.56 1738.09
40.42 -192.83 1738.14
40.62 -192.77 1738.10
40.08 -192.80 1738.18
40.62 -192.60 1738.06
40.76 -192.48 1738.00
34.73 -193.02 1738.05
35.10 -193.22 1738.20
35.44 -193.25 1738.28
35.35 -193.27 1738.27
35.57 -193.30 1738.33
35.84 -193.30 1738.35
34.79 -193.51 1738.15
34.89 -193.56 1738.17
34.64 -193.49 1738.12
35.21 -193.64 1738.30
35.31 -193.63 1738.33
34.96 -193.55 1738.19
35.23 -193.69 1738.32
35.25 -193.29 1738.25
35.53 -193.42 1738.36
35.59 -193.63 1738.40
36.53 -193.24 1738.36
36.76 -193.14 1738.33
36.76 -193.28 1738.38
40.03 -193.07 1738.27
40.49 -193.15 1738.23
40.18 -193.34 1738.35
40.50 -193.29 1738.28
40.28 -193.06 1738.23
40.21 -192.89 1738.18
40.04 -192.90 1738.21
40.21 -192.86 1738.17
40.74 -193.55 1738.27
40.47 -193.55 1738.36
40.67 -193.27 1738.22
40.66 -193.14 1738.19
40.52 -193.58 1738.35
40.46 -193.77 1738.45
40.80 -193.58 1738.26
40.67 -193.62 1738.32
40.63 -193.72 1738.37
40.82 -193.95 1738.42
41.13 -193.85 1738.23
41.04 -193.61 1738.18
34.90 -194.53 1738.19
35.24 -194.21 1738.33
34.97 -194.18 1738.24
34.98 -194.40 1738.22
35.02 -194.25 1738.25
35.27 -194.12 1738.35
35.14 -193.93 1738.30
35.31 -194.14 1738.36
35.75 -193.89 1738.46
35.71 -193.93 1738.45
35.55 -193.88 1738.41
35.38 -193.79 1738.37
41.04 -194.04 1738.41
41.02 -193.91 1738.31
41.26 -194.00 1738.30
41.32 -193.93 1738.22
35.75 -194.07 1738.46
35.68 -194.11 1738.45
41.50 -194.14 1738.30
41.63 -194.15 1738.21
41.78 -194.27 1738.30
35.03 -194.49 1738.24
35.07 -194.72 1738.24
35.35 -194.70 1738.35
35.25 -194.59 1738.32
35.10 -194.78 1738.25
35.41 -194.53 1738.38
35.45 -194.31 1738.40
35.68 -194.37 1738.46
35.57 -194.47 1738.43
41.97 -194.34 1738.19
42.29 -194.45 1738.28
42.48 -194.47 1738.28
42.64 -194.55 1738.14
42.62 -194.52 1738.23
42.88 -194.49 1738.35
42.74 -194.59 1738.08
43.03 -194.56 1738.26
43.20 -194.51 1738.35
43.08 -194.51 1738.35
43.16 -194.57 1738.26
43.43 -194.69 1738.12
43.56 -194.59 1738.27
43.62 -194.71 1738.10
43.69 -194.48 1738.45
43.97 -194.58 1738.35
43.94 -194.71 1738.14
44.04 -194.56 1738.39
44.02 -194.69 1738.18
44.34 -194.75 1738.13
44.57 -194.71 1738.23
44.63 -194.61 1738.38
44.82 -194.64 1738.36
45.28 -194.82 1738.24
45.12 -194.68 1738.37
34.92 -195.18 1738.11
35.18 -194.83 1738.28
35.12 -194.88 1738.24
35.38 -194.91 1738.34
35.00 -194.97 1738.17
35.40 -195.03 1738.33
35.52 -195.27 1738.33
35.56 -195.41 1738.32
35.10 -195.28 1738.16
35.61 -195.36 1738.36
44.87 -194.74 1738.22
44.86 -194.80 1738.15
44.96 -194.70 1738.30
45.42 -194.98 1738.12
45.50 -194.76 1738.37
45.56 -194.96 1738.18
45.74 -195.01 1738.19
45.77 -195.09 1738.11
46.26 -194.98 1738.38
45.91 -194.92 1738.33
35.09 -195.42 1738.11
35.46 -195.51 1738.24
35.52 -195.46 1738.29
46.28 -195.07 1738.30
46.23 -195.03 1738.31
46.08 -195.13 1738.17
46.62 -195.14 1738.34
46.49 -195.04 1738.39
46.64 -195.20 1738.29
47.02 -195.26 1738.30
46.98 -195.23 1738.32
48.02 -195.38 1738.25
47.90 -195.40 1738.22
48.30 -195.35 1738.38
48.53 -195.41 1738.32
48.18 -195.42 1738.19
48.63 -195.46 1738.11
48.63 -195.45 1738.18
48.64 -195.43 1738.32
49.08 -195.42 1738.13
49.01 -195.44 1738.20
48.98 -195.42 1738.09
49.11 -195.48 1738.38
49.30 -195.40 1738.15
49.69 -195.49 1738.27
49.48 -195.44 1738.16
35.27 -195.65 1738.12
35.44 -195.73 1738.14
35.60 -195.53 1738.29
35.76 -195.78 1738.24
35.95 -195.79 1738.31
47.44 -195.42 1738.20
47.52 -195.33 1738.30
47.64 -195.52 1738.12
47.69 -195.32 1738.31
48.12 -195.40 1738.23
49.91 -195.64 1738.34
49.72 -195.63 1738.39
50.17 -195.58 1738.23
50.19 -195.50 1738.16
50.24 -195.57 1738.21
50.21 -195.72 1738.31
50.47 -195.64 1738.17
50.66 -195.81 1738.17
36.00 -195.92 1738.26
35.86 -195.87 1738.24
35.77 -196.10 1738.03
36.38 -196.05 1738.30
36.44 -195.76 1738.48
36.10 -196.13 1738.16
36.28 -196.06 1738.27
36.55 -196.11 1738.32
36.60 -196.09 1738.35
36.65 -196.00 1738.42
50.24 -195.83 1738.35
50.62 -195.94 1738.23
50.57 -195.93 1738.25
50.48 -195.93 1738.29
36.66 -196.27 1738.24
36.75 -196.21 1738.33
36.53 -196.27 1738.20
36.98 -196.57 1738.15
37.02 -196.44 1738.28
37.29 -196.59 1738.29
50.44 -196.29 1738.35
50.68 -196.08 1738.22
50.40 -196.28 1738.37
50.64 -196.43 1738.25
50.66 -196.21 1738.24
50.86 -196.05 1738.13
50.62 -196.37 1738.26
50.65 -196.20 1738.24
37.33 -196.74 1738.18
37.46 -196.67 1738.31
37.67 -196.80 1738.32
45.57 -196.94 1738.16
45.38 -197.01 1738.21
45.96 -197.00 1738.25
45.94 -197.11 1738.36
45.70 -197.13 1738.36
50.47 -196.69 1738.29
50.75 -196.71 1738.14
50.59 -196.59 1738.26
50.53 -196.75 1738.24
50.99 -196.58 1738.06
51.03 -196.88 1737.95
50.84 -196.78 1738.07
50.93 -196.68 1738.06
37.75 -196.89 1738.28
37.72 -196.95 1738.20
38.17 -197.13 1738.26
37.84 -197.11 1738.10
37.89 -197.07 1738.17
38.51 -197.09 1738.47
38.33 -197.20 1738.28
38.31 -197.32 1738.12
38.69 -197.19 1738.47
38.85 -196.96 1738.67
38.81 -197.08 1738.58
44.59 -197.19 1738.12
45.04 -197.01 1738.15
44.91 -197.13 1738.25
45.03 -197.24 1738.41
45.55 -197.18 1738.40
45.29 -197.10 1738.30
46.26 -197.10 1738.38
46.42 -196.88 1738.19
46.28 -197.03 1738.31
46.80 -197.13 1738.43
46.69 -196.92 1738.24
46.66 -197.01 1738.31
46.46 -197.08 1738.37
47.14 -197.08 1738.34
47.10 -197.07 1738.34
46.96 -197.02 1738.31
47.61 -197.17 1738.26
47.46 -197.03 1738.18
47.34 -197.19 1738.38
47.38 -197.22 1738.40
50.05 -197.25 1738.18
50.18 -197.05 1738.29
50.16 -197.13 1738.22
50.41 -197.17 1738.08
50.44 -197.17 1738.08
50.43 -197.04 1738.17
50.59 -197.10 1738.05
38.84 -197.51 1738.24
38.96 -197.64 1738.19
39.14 -197.61 1738.35
44.33 -197.42 1738.05
44.39 -197.38 1738.16
44.30 -197.50 1738.32
44.71 -197.27 1738.33
44.39 -197.46 1738.34
47.76 -197.22 1738.28
48.19 -197.35 1738.22
48.14 -197.40 1738.35
47.97 -197.32 1738.28
47.91 -197.31 1738.32
48.62 -197.47 1738.33
48.26 -197.37 1738.20
48.34 -197.38 1738.15
48.75 -197.48 1738.36
48.92 -197.50 1738.31
48.90 -197.51 1738.20
49.57 -197.31 1738.39
49.53 -197.38 1738.31
49.47 -197.48 1738.19
49.68 -197.41 1738.19
49.65 -197.45 1738.14
39.31 -197.89 1738.21
39.43 -197.96 1738.24
44.26 -197.56 1738.05
44.22 -197.79 1738.21
44.24 -197.60 1738.34
43.76 -198.10 1738.42
43.94 -198.21 1738.28
43.93 -198.26 1738.27
44.09 -197.98 1738.24
44.13 -198.20 1738.15
39.66 -198.16 1738.22
40.12 -198.49 1738.09
40.22 -198.34 1738.34
40.05 -198.45 1738.12
40.02 -198.44 1738.12
40.49 -198.57 1738.20
