52.05 -202.36 1733.26
52.10 -202.34 1733.29
52.19 -202.33 1733.33
52.18 -202.40 1733.24
52.62 -202.47 1733.32
52.38 -202.54 1733.13
52.61 -202.56 1733.16
52.73 -202.58 1733.14
52.85 -202.49 1733.36
52.95 -202.50 1733.38
52.91 -202.60 1733.16
53.23 -202.65 1733.21
50.79 -202.94 1733.10
50.77 -202.96 1733.10
50.83 -202.77 1733.13
51.09 -202.74 1733.06
51.15 -202.67 1733.06
53.32 -202.72 1733.10
53.44 -202.72 1733.17
53.39 -202.82 1732.90
53.43 -202.82 1732.91
53.82 -202.81 1733.20
53.76 -202.88 1732.97
53.98 -202.89 1733.08
54.13 -202.85 1733.28
54.31 -202.96 1733.09
54.48 -202.96 1733.13
54.80 -203.05 1733.08
54.93 -203.05 1733.17
55.11 -203.05 1733.31
50.61 -203.11 1733.18
50.31 -203.28 1733.35
51.00 -203.62 1732.93
50.86 -203.64 1733.02
50.86 -203.44 1733.03
50.98 -203.51 1732.95
50.81 -203.41 1733.06
55.16 -203.09 1733.25
54.89 -203.08 1733.07
55.38 -203.17 1733.13
55.40 -203.19 1733.10
55.63 -203.20 1733.18
55.86 -203.27 1733.27
55.93 -203.38 1733.15
50.65 -203.36 1733.15
50.48 -203.47 1733.25
50.82 -203.15 1733.06
50.46 -203.51 1733.27
50.34 -203.51 1733.36
50.52 -203.73 1733.28
56.12 -203.48 1733.17
56.00 -203.43 1733.13
56.40 -203.58 1733.21
56.54 -203.59 1733.32
50.56 -203.86 1733.30
50.55 -203.80 1733.28
50.82 -203.73 1733.07
51.04 -203.88 1732.99
51.01 -203.67 1732.95
51.01 -204.02 1733.05
50.75 -203.86 1733.16
50.86 -203.95 1733.12
50.66 -203.92 1733.25
56.58 -203.66 1733.24
56.39 -203.65 1733.10
56.66 -203.95 1732.94
56.63 -203.95 1732.91
56.97 -203.84 1733.22
56.78 -203.88 1733.09
56.91 -203.77 1733.27
56.85 -203.98 1733.01
57.37 -204.00 1733.23
50.69 -204.19 1733.35
50.78 -204.27 1733.34
50.87 -204.22 1733.25
51.02 -204.22 1733.13
51.00 -204.51 1733.35
51.10 -204.62 1733.32
57.12 -204.08 1733.04
57.16 -204.16 1732.99
57.55 -204.34 1733.07
57.57 -204.47 1733.01
57.32 -204.09 1733.13
57.50 -204.20 1733.13
57.68 -204.11 1733.29
57.79 -204.35 1733.19
57.91 -204.34 1733.24
57.74 -204.22 1733.25
51.25 -204.65 1733.18
51.04 -204.72 1733.45
51.33 -204.63 1733.07
58.17 -204.49 1733.25
58.14 -204.46 1733.26
58.00 -204.69 1733.08
58.24 -204.63 1733.22
58.26 -204.42 1733.32
51.48 -204.99 1733.21
51.77 -205.11 1733.30
51.78 -205.11 1733.30
52.43 -205.13 1733.23
52.12 -205.13 1733.33
52.32 -205.14 1733.17
52.21 -205.12 1733.45
52.37 -205.14 1733.04
51.92 -205.12 1733.22
52.65 -205.14 1733.07
52.67 -205.11 1733.41
52.73 -205.13 1733.13
52.71 -205.12 1733.23
52.56 -205.12 1733.31
52.76 -205.14 1733.07
53.12 -205.16 1733.07
53.49 -205.25 1733.05
53.71 -205.21 1733.22
53.44 -205.20 1733.18
58.06 -204.89 1733.03
58.12 -205.00 1733.01
57.90 -204.74 1733.02
58.25 -205.23 1732.98
58.65 -205.25 1733.15
58.22 -205.23 1732.96
58.52 -205.08 1733.16
58.55 -204.75 1733.29
58.62 -204.74 1733.32
53.52 -205.28 1732.98
53.90 -205.36 1733.07
53.67 -205.32 1733.01
54.24 -205.36 1733.18
54.34 -205.43 1733.16
54.04 -205.25 1733.26
54.12 -205.30 1733.21
54.64 -205.50 1733.23
54.72 -205.71 1733.01
54.59 -205.55 1733.14
54.87 -205.67 1733.15
55.00 -205.67 1733.23
55.17 -205.92 1733.03
58.31 -205.35 1732.96
58.46 -205.53 1732.97
58.27 -205.38 1732.93
58.32 -205.31 1732.98
58.82 -205.72 1733.13
58.56 -205.86 1732.91
58.78 -205.58 1733.14
58.94 -205.84 1733.17
58.82 -205.33 1733.20
58.88 -205.61 1733.19
58.99 -205.64 1733.23
58.86 -205.54 1733.19
55.36 -206.04 1733.02
55.63 -206.13 1733.09
55.51 -206.14 1733.00
55.87 -206.20 1733.17
58.74 -206.10 1732.95
58.95 -206.08 1733.11
58.76 -206.13 1732.95
56.02 -206.36 1733.17
55.98 -206.39 1733.10
58.93 -206.42 1733.00
58.99 -206.26 1733.10
58.99 -206.30 1733.08
56.40 -206.87 1733.29
56.35 -206.89 1733.24
56.29 -206.74 1733.23
58.89 -206.45 1732.93
59.21 -206.76 1733.22
56.39 -207.03 1733.23
56.47 -207.19 1733.28
56.62 -206.91 1733.47
59.24 -207.21 1733.17
59.13 -206.96 1733.03
59.16 -207.08 1733.03
56.31 -207.37 1733.00
56.48 -207.46 1733.24
57.58 -207.46 1733.31
59.28 -207.42 1733.24
59.21 -207.42 1733.12
56.59 -207.81 1733.00
56.44 -207.51 1733.13
56.68 -207.85 1733.23
56.63 -207.75 1733.23
57.46 -207.70 1733.20
57.63 -207.65 1733.17
57.71 -207.85 1733.07
57.78 -207.85 1733.11
58.46 -208.00 1733.27
59.17 -207.66 1733.21
59.15 -207.69 1733.31
59.17 -207.70 1733.19
59.20 -207.66 1733.16
59.23 -207.71 1733.19
59.49 -207.89 1733.14
56.96 -208.16 1733.02
56.96 -208.17 1733.06
56.84 -208.08 1733.21
57.10 -208.11 1733.31
57.21 -208.16 1733.05
57.19 -208.12 1733.18
57.87 -208.10 1732.93
57.89 -208.01 1733.02
58.11 -208.01 1733.15
58.38 -208.16 1733.14
58.33 -208.13 1733.14
58.73 -208.27 1733.23
58.47 -208.26 1733.11
59.80 -208.19 1733.27
59.76 -208.11 1733.15
58.82 -208.51 1733.16
58.86 -208.60 1733.14
58.73 -208.63 1733.00
59.17 -208.76 1733.24
59.20 -208.80 1733.23
59.04 -208.84 1733.09
59.32 -208.91 1733.23
60.43 -208.75 1733.23
67.93 -208.79 1733.33
67.69 -208.94 1733.29
68.12 -208.85 1733.26
68.02 -208.71 1733.36
68.20 -208.87 1733.24
68.37 -208.89 1733.18
68.73 -208.80 1733.19
69.12 -208.74 1733.32
59.13 -209.05 1733.00
59.13 -208.99 1733.04
59.47 -209.09 1733.21
59.32 -209.25 1733.00
59.37 -209.27 1733.02
59.62 -209.04 1733.32
59.73 -209.25 1733.24
60.60 -209.14 1733.32
60.52 -209.04 1733.31
60.92 -209.09 1733.18
60.94 -209.09 1733.14
61.19 -209.19 1733.15
67.89 -209.17 1733.14
67.62 -209.07 1733.25
67.79 -209.13 1733.18
68.55 -208.91 1733.13
68.49 -209.00 1733.08
68.40 -208.90 1733.16
68.64 -208.91 1733.11
68.69 -208.84 1733.15
69.23 -208.95 1733.08
69.31 -208.96 1733.09
69.47 -209.00 1733.10
69.49 -208.84 1733.34
69.81 -209.02 1733.31
69.86 -209.07 1733.28
69.74 -209.08 1733.15
70.12 -209.19 1733.22
70.17 -209.17 1733.33
59.61 -209.37 1733.12
59.79 -209.57 1733.15
59.53 -209.35 1733.09
59.91 -209.61 1733.19
60.11 -209.35 1733.32
60.19 -209.26 1733.34
60.37 -209.30 1733.38
61.30 -209.20 1733.02
61.16 -209.10 1732.95
61.50 -209.34 1733.15
67.47 -209.37 1733.19
70.43 -209.44 1732.95
70.41 -209.34 1733.18
70.64 -209.42 1733.24
70.53 -209.38 1733.20
70.81 -209.52 1733.17
70.98 -209.64 1733.04
59.96 -209.68 1733.20
59.80 -209.75 1733.10
60.04 -209.88 1733.30
61.99 -209.60 1733.25
61.95 -209.62 1733.43
62.37 -209.78 1733.32
62.12 -209.70 1733.44
62.39 -209.79 1733.24
66.95 -209.92 1733.50
67.41 -209.93 1733.21
67.61 -210.03 1733.11
67.36 -209.87 1733.23
67.14 -209.85 1733.37
71.04 -209.70 1733.06
71.24 -210.05 1733.31
71.22 -210.03 1733.32
59.94 -209.94 1733.23
59.86 -209.96 1733.17
59.70 -210.32 1733.04
59.78 -210.29 1733.11
60.01 -210.38 1733.43
62.50 -209.86 1733.21
62.59 -209.92 1733.26
67.51 -210.25 1733.25
67.28 -210.12 1733.35
67.10 -210.08 1733.46
67.75 -210.27 1733.08
67.60 -210.25 1733.19
71.43 -210.15 1733.01
71.52 -210.28 1733.01
71.45 -210.22 1733.05
59.72 -210.62 1733.14
59.82 -210.58 1733.25
59.80 -210.80 1733.38
63.16 -210.39 1732.99
63.29 -210.46 1733.04
63.42 -210.57 1732.96
63.10 -210.39 1732.88
63.35 -210.50 1733.13
63.37 -210.52 1733.18
67.73 -210.54 1733.23
67.87 -210.65 1733.18
67.97 -210.68 1733.08
71.61 -210.66 1733.21
71.35 -210.25 1733.35
71.60 -210.62 1733.20
59.79 -210.92 1733.41
59.77 -210.83 1733.32
59.71 -210.93 1733.20
63.75 -210.83 1733.14
63.81 -210.89 1733.23
63.61 -210.73 1733.21
63.65 -210.76 1733.32
64.05 -211.01 1733.02
63.99 -211.06 1733.33
64.08 -211.13 1733.33
67.95 -210.79 1733.19
68.10 -211.02 1733.19
71.85 -210.86 1733.02
71.66 -210.87 1733.30
59.65 -211.12 1733.07
59.67 -211.16 1733.08
59.72 -211.25 1733.30
64.35 -211.23 1733.07
64.44 -211.29 1733.09
68.24 -211.30 1733.23
68.27 -211.25 1733.12
60.01 -211.68 1733.18
59.99 -211.67 1733.20
59.89 -211.57 1733.12
64.55 -211.38 1733.10
64.50 -211.41 1733.24
64.51 -211.45 1733.30
64.71 -211.53 1733.18
64.86 -211.63 1733.19
68.57 -211.71 1733.20
68.59 -211.64 1733.05
68.42 -211.42 1733.03
72.06 -211.43 1733.05
60.25 -211.87 1733.16
60.21 -211.83 1733.06
60.38 -211.98 1733.35
60.52 -212.04 1733.47
60.38 -211.97 1733.17
60.25 -211.85 1732.99
65.10 -211.79 1733.23
65.17 -211.74 1733.09
65.30 -211.96 1733.33
65.22 -211.73 1733.03
65.38 -211.86 1733.11
65.58 -212.11 1733.31
65.65 -212.14 1733.30
68.89 -211.89 1733.03
68.61 -211.76 1733.23
69.21 -212.10 1733.17
69.15 -212.08 1733.20
68.97 -211.95 1733.09
69.35 -212.14 1732.98
69.37 -212.18 1733.23
72.03 -211.84 1733.21
72.27 -211.79 1733.02
61.10 -212.36 1732.97
60.90 -212.28 1733.10
60.96 -212.35 1733.25
60.71 -212.17 1733.27
60.75 -212.20 1733.43
60.91 -212.31 1733.42
66.14 -212.34 1733.15
66.08 -212.31 1733.15
65.88 -212.29 1733.28
66.35 -212.48 1733.10
69.81 -212.36 1733.26
69.78 -212.36 1733.16
71.90 -212.13 1733.27
71.90 -212.17 1733.26
61.26 -212.53 1733.29
61.13 -212.46 1733.31
66.51 -212.68 1732.98
66.54 -212.83 1733.03
70.12 -212.52 1733.11
70.07 -212.46 1733.29
70.28 -212.56 1733.19
70.61 -212.57 1733.28
70.49 -212.54 1733.30
71.16 -212.88 1733.05
70.94 -212.77 1733.09
70.70 -212.71 1733.10
70.74 -212.70 1733.13
70.91 -212.54 1733.37
71.72 -212.53 1733.20
71.75 -212.67 1733.11
71.70 -212.48 1733.24
61.47 -212.63 1733.19
62.06 -212.91 1733.24
61.91 -212.85 1733.15
61.42 -212.54 1732.98
61.68 -212.72 1733.04
62.28 -213.03 1733.16
62.11 -212.94 1733.16
62.04 -212.89 1732.97
62.51 -213.10 1733.27
62.83 -213.12 1733.36
66.52 -212.87 1733.08
66.49 -212.90 1733.13
66.60 -213.24 1733.14
66.57 -213.22 1733.15
70.93 -213.04 1732.76
70.85 -212.94 1732.86
70.96 -212.88 1732.97
71.39 -213.01 1732.93
71.31 -213.04 1732.90
70.97 -213.10 1732.68
62.43 -213.10 1733.07
62.89 -213.17 1733.27
63.38 -213.38 1733.19
63.43 -213.50 1733.06
63.21 -213.26 1733.24
63.47 -213.47 1733.12
62.96 -213.24 1733.15
63.70 -213.42 1733.26
63.55 -213.48 1733.16
63.60 -213.36 1733.29
66.50 -213.55 1733.28
66.66 -213.48 1733.13
63.97 -213.49 1733.30
64.07 -213.58 1733.26
64.05 -213.54 1733.29
63.84 -213.49 1733.25
66.67 -213.69 1733.18
66.53 -213.69 1733.27
66.93 -213.64 1733.00
64.24 -213.68 1733.25
64.15 -213.66 1733.22
64.26 -213.64 1733.28
63.77 -213.72 1733.00
64.66 -214.04 1733.15
64.55 -213.81 1733.27
64.74 -213.85 1733.31
64.75 -213.97 1733.23
64.65 -213.87 1733.26
66.48 -213.79 1733.29
66.60 -213.99 1733.21
66.76 -213.85 1733.13
66.88 -214.04 1733.08
67.02 -213.96 1733.02
64.59 -214.20 1733.03
64.58 -214.13 1733.06
64.81 -214.22 1733.09
64.97 -214.09 1733.22
65.10 -214.25 1733.17
65.19 -214.36 1733.12
65.36 -214.54 1733.05
65.25 -214.21 1733.22
65.50 -214.17 1733.27
65.45 -214.35 1733.17
65.36 -214.29 1733.19
65.89 -214.57 1733.09
65.77 -214.49 1733.13
65.65 -214.34 1733.20
65.90 -214.54 1733.11
66.04 -214.38 1733.21
66.09 -214.19 1733.29
66.05 -214.14 1733.32
66.29 -214.36 1733.17
66.35 -214.21 1733.24
66.17 -214.57 1733.10
66.43 -214.37 1733.15
66.96 -214.21 1733.05
66.69 -214.19 1733.16
67.03 -214.32 1733.01
66.88 -214.43 1733.05
66.33 -214.57 1733.09
66.29 -214.74 1733.03
67.12 -214.52 1732.95
67.01 -214.52 1732.98
66.70 -214.74 1732.99
66.72 -214.78 1732.97
42.81 -188.22 1733.45
42.97 -188.09 1733.40
43.03 -188.06 1733.40
43.18 -188.09 1733.63
43.57 -187.93 1733.58
43.98 -187.95 1733.68
43.64 -187.96 1733.67
43.70 -187.88 1733.47
43.67 -187.86 1733.42
43.77 -187.83 1733.36
44.10 -187.79 1733.29
43.89 -187.88 1733.50
44.36 -188.02 1733.63
44.23 -187.75 1733.18
44.46 -188.05 1733.60
44.56 -188.06 1733.34
44.50 -188.07 1733.58
44.54 -188.08 1733.49
44.62 -188.22 1733.71
42.67 -188.34 1733.53
42.94 -188.24 1733.63
44.85 -188.56 1733.72
44.87 -188.49 1733.55
44.87 -188.47 1733.53
44.89 -188.59 1733.65
42.59 -188.47 1733.66
45.07 -188.80 1733.50
45.04 -188.94 1733.68
67.72 -188.67 1733.57
67.64 -188.72 1733.52
68.00 -188.70 1733.59
68.04 -188.80 1733.45
68.42 -188.89 1733.45
68.53 -188.92 1733.44
45.14 -189.16 1733.58
45.11 -188.95 1733.50
45.15 -188.99 1733.44
45.18 -189.31 1733.59
66.96 -189.03 1733.51
67.10 -189.15 1733.43
66.99 -189.03 1733.50
67.50 -188.93 1733.40
67.64 -188.80 1733.46
67.23 -189.12 1733.41
67.26 -189.00 1733.44
67.50 -189.22 1733.30
68.77 -189.04 1733.35
68.68 -188.91 1733.52
69.06 -189.10 1733.50
69.23 -189.21 1733.48
45.20 -189.44 1733.61
66.33 -189.41 1733.64
66.47 -189.32 1733.60
66.68 -189.44 1733.49
66.84 -189.34 1733.46
66.83 -189.12 1733.51
67.02 -189.37 1733.39
69.54 -189.38 1733.47
69.38 -189.27 1733.51
69.72 -189.50 1733.52
45.29 -189.94 1733.37
45.27 -189.60 1733.45
66.32 -189.63 1733.64
66.23 -190.03 1733.69
66.36 -189.86 1733.64
66.59 -189.92 1733.55
66.91 -189.81 1733.41
66.38 -189.52 1733.61
66.53 -189.83 1733.57
66.45 -189.80 1733.60
67.33 -189.82 1733.33
67.17 -189.64 1733.34
67.21 -189.79 1733.35
66.84 -189.61 1733.41
67.02 -189.61 1733.37
69.89 -189.67 1733.46
69.78 -189.64 1733.38
70.06 -189.73 1733.53
41.21 -190.19 1733.51
41.32 -189.95 1733.40
41.28 -190.01 1733.46
45.28 -190.23 1733.58
45.25 -190.33 1733.41
45.28 -190.16 1733.35
66.85 -190.13 1733.51
67.41 -190.14 1733.36
67.22 -190.41 1733.55
67.11 -190.51 1733.63
67.11 -189.95 1733.38
66.96 -190.18 1733.49
67.27 -190.11 1733.39
70.33 -190.00 1733.31
70.60 -190.04 1733.41
70.57 -190.04 1733.39
70.83 -190.11 1733.49
71.30 -190.20 1733.32
71.16 -190.22 1733.60
71.29 -190.21 1733.37
71.51 -190.21 1733.35
71.39 -190.23 1733.39
71.66 -190.27 1733.52
72.01 -190.30 1733.45
72.21 -190.31 1733.28
41.12 -190.43 1733.51
67.25 -190.68 1733.65
67.14 -190.60 1733.67
67.45 -190.26 1733.39
67.36 -190.31 1733.45
67.22 -190.71 1733.67
67.92 -190.44 1733.28
67.65 -190.36 1733.36
67.69 -190.36 1733.34
67.76 -190.55 1733.39
72.32 -190.39 1733.34
72.25 -190.37 1733.38
72.42 -190.52 1733.34
41.22 -190.89 1733.53
41.19 -190.85 1733.59
41.22 -190.88 1733.52
68.02 -190.70 1733.36
68.06 -190.71 1733.34
68.02 -190.94 1733.46
72.51 -190.89 1733.42
72.51 -190.96 1733.41
32.10 -191.21 1733.35
32.17 -191.22 1733.34
32.27 -191.22 1733.36
32.42 -191.31 1733.28
32.65 -191.27 1733.52
41.42 -191.25 1733.49
41.36 -191.17 1733.56
41.59 -191.44 1733.48
41.50 -191.31 1733.44
41.72 -191.47 1733.33
44.85 -191.43 1733.63
68.53 -191.03 1733.34
68.23 -190.90 1733.34
68.62 -191.17 1733.39
68.77 -191.23 1733.35
72.33 -191.33 1733.50
31.14 -191.69 1733.64
31.32 -191.47 1733.57
31.72 -191.29 1733.86
31.75 -191.26 1733.61
31.69 -191.27 1733.56
31.91 -191.22 1733.80
32.77 -191.32 1733.54
32.89 -191.36 1733.58
32.69 -191.40 1733.33
41.89 -191.67 1733.39
41.78 -191.63 1733.47
41.69 -191.62 1733.58
42.19 -191.82 1733.35
44.73 -191.58 1733.63
44.64 -191.61 1733.46
44.52 -191.66 1733.28
68.86 -191.42 1733.51
68.65 -191.36 1733.55
69.24 -191.61 1733.49
69.04 -191.46 1733.42
69.06 -191.48 1733.43
72.17 -191.46 1733.39
72.14 -191.51 1733.47
31.19 -191.79 1733.55
31.23 -191.86 1733.55
31.58 -192.10 1733.43
33.18 -191.76 1733.35
33.26 -191.74 1733.45
32.91 -191.58 1733.29
33.16 -191.62 1733.48
33.63 -191.76 1733.66
33.45 -191.86 1733.46
33.34 -191.71 1733.53
33.56 -191.83 1733.56
42.26 -191.95 1733.51
42.63 -192.03 1733.42
42.47 -192.00 1733.44
42.52 -191.95 1733.32
42.85 -192.12 1733.49
42.73 -192.12 1733.56
43.04 -192.08 1733.32
43.78 -192.11 1733.44
43.87 -192.08 1733.49
44.05 -192.04 1733.59
44.37 -191.81 1733.35
69.60 -191.72 1733.29
69.77 -191.78 1733.23
69.55 -191.75 1733.56
69.50 -191.74 1733.62
69.84 -191.83 1733.28
69.83 -191.82 1733.26
70.94 -192.08 1733.47
70.95 -192.06 1733.55
71.36 -192.03 1733.46
71.08 -192.11 1733.35
71.54 -191.87 1733.60
71.68 -191.81 1733.48
71.95 -191.60 1733.33
31.12 -192.54 1733.55
31.26 -192.35 1733.54
31.51 -192.14 1733.41
33.70 -192.02 1733.50
33.75 -192.05 1733.51
33.81 -191.94 1733.63
33.87 -192.05 1733.59
43.33 -192.15 1733.42
43.63 -192.17 1733.51
43.45 -192.13 1733.38
43.69 -192.19 1733.61
70.10 -191.99 1733.44
70.51 -192.12 1733.43
70.52 -192.13 1733.36
70.70 -192.03 1733.66
70.79 -192.07 1733.51
33.83 -192.61 1733.26
33.78 -192.67 1733.18
33.75 -192.40 1733.32
33.86 -192.27 1733.45
33.96 -192.46 1733.43
33.68 -192.20 1733.36
33.91 -192.27 1733.47
34.32 -192.59 1733.60
34.37 -192.73 1733.58
34.00 -192.98 1733.26
33.96 -192.89 1733.25
34.44 -192.95 1733.58
34.40 -193.15 1733.53
34.47 -193.06 1733.59
34.32 -193.19 1733.47
34.12 -193.27 1733.32
34.15 -193.15 1733.34
34.18 -193.68 1733.38
34.28 -193.76 1733.46
34.38 -193.76 1733.55
30.74 -193.73 1733.33
30.72 -193.80 1733.39
34.05 -194.09 1733.40
33.89 -193.97 1733.23
34.12 -194.04 1733.43
34.15 -194.06 1733.46
30.71 -194.15 1733.35
33.80 -194.36 1733.35
33.91 -194.12 1733.31
33.99 -194.20 1733.41
34.28 -194.16 1733.59
34.25 -194.05 1733.52
30.61 -194.64 1733.40
33.66 -194.78 1733.53
33.76 -194.75 1733.56
33.80 -194.77 1733.59
32.68 -195.28 1733.38
32.55 -195.35 1733.38
32.46 -195.44 1733.43
32.93 -195.17 1733.41
33.05 -195.17 1733.48
33.10 -195.21 1733.55
30.88 -195.38 1733.51
30.63 -195.11 1733.47
31.38 -195.62 1733.83
31.49 -195.62 1733.78
31.12 -195.48 1733.47
31.42 -195.61 1733.65
31.06 -195.48 1733.62
32.20 -195.59 1733.61
32.05 -195.59 1733.58
31.61 -195.59 1733.34
31.84 -195.60 1733.54
32.45 -195.53 1733.60
32.49 -195.51 1733.57
51.02 -202.08 1733.47
50.93 -201.89 1733.61
51.22 -201.89 1733.59
50.80 -202.20 1733.46
50.45 -202.32 1733.66
50.76 -202.24 1733.45
50.53 -202.24 1733.63
51.35 -202.32 1733.30
51.13 -202.13 1733.43
51.34 -202.04 1733.49
51.50 -202.07 1733.48
51.45 -202.09 1733.46
51.41 -201.91 1733.59
51.97 -202.21 1733.42
51.87 -202.02 1733.56
51.67 -202.10 1733.48
51.98 -202.05 1733.55
52.26 -202.27 1733.43
52.60 -202.24 1733.59
50.31 -202.82 1733.49
50.49 -202.61 1733.41
50.33 -202.61 1733.58
50.55 -202.39 1733.54
52.62 -202.37 1733.45
53.65 -202.68 1733.42
50.23 -202.81 1733.57
50.27 -202.89 1733.49
53.47 -202.71 1733.22
53.72 -202.73 1733.34
53.86 -202.72 1733.46
54.26 -202.79 1733.56
54.24 -202.81 1733.49
54.17 -202.83 1733.37
54.61 -202.85 1733.56
54.82 -202.94 1733.36
54.92 -202.93 1733.46
49.95 -203.38 1733.68
49.94 -203.36 1733.69
50.09 -203.16 1733.56
50.11 -203.08 1733.55
55.61 -203.13 1733.48
55.77 -203.18 1733.48
55.77 -203.23 1733.27
49.88 -203.54 1733.77
50.20 -203.51 1733.48
49.90 -203.56 1733.75
50.15 -203.53 1733.53
56.08 -203.33 1733.46
55.87 -203.22 1733.51
56.32 -203.40 1733.73
56.33 -203.42 1733.65
56.35 -203.41 1733.73
56.72 -203.58 1733.71
56.34 -203.46 1733.47
56.50 -203.50 1733.61
56.69 -203.63 1733.45
57.14 -203.78 1733.39
57.17 -203.73 1733.49
57.15 -203.83 1733.31
57.05 -203.66 1733.53
57.27 -203.74 1733.52
57.57 -203.86 1733.48
57.40 -203.91 1733.33
57.78 -203.93 1733.50
57.94 -203.95 1733.55
50.27 -203.91 1733.55
50.32 -203.93 1733.51
50.42 -204.06 1733.51
50.51 -204.42 1733.74
50.71 -204.49 1733.59
50.57 -204.23 1733.49
57.91 -204.07 1733.41
57.94 -204.11 1733.40
58.31 -204.07 1733.59
58.22 -204.33 1733.37
58.52 -204.56 1733.35
58.59 -204.57 1733.38
58.54 -204.14 1733.64
58.60 -204.24 1733.59
58.64 -204.38 1733.52
51.32 -204.94 1733.35
58.83 -204.70 1733.40
58.82 -204.65 1733.43
58.75 -204.60 1733.42
59.24 -204.71 1733.55
59.19 -204.70 1733.53
59.54 -204.83 1733.61
59.48 -204.71 1733.63
59.47 -204.86 1733.57
51.67 -205.10 1733.42
51.49 -205.03 1733.28
53.06 -205.11 1733.31
52.87 -204.98 1733.66
53.03 -205.09 1733.35
52.54 -205.02 1733.68
52.92 -204.98 1733.64
53.26 -205.04 1733.41
53.27 -205.05 1733.38
53.12 -205.01 1733.51
53.17 -205.06 1733.38
53.08 -204.92 1733.75
53.30 -205.12 1733.27
53.46 -205.02 1733.41
53.70 -204.95 1733.53
54.07 -205.15 1733.40
53.91 -205.19 1733.30
58.75 -204.73 1733.37
58.74 -205.16 1733.22
58.67 -204.77 1733.33
58.67 -204.69 1733.36
54.67 -205.32 1733.42
54.80 -205.18 1733.59
54.91 -205.46 1733.40
54.94 -205.35 1733.51
55.33 -205.53 1733.52
55.28 -205.57 1733.46
58.98 -205.05 1733.33
59.09 -205.05 1733.38
59.16 -205.18 1733.38
59.63 -205.13 1733.55
59.20 -205.05 1733.42
59.43 -204.99 1733.51
59.30 -205.30 1733.41
59.53 -205.46 1733.47
59.54 -205.37 1733.49
59.65 -205.14 1733.56
59.43 -205.42 1733.44
55.41 -205.70 1733.40
55.56 -205.55 1733.61
55.69 -205.72 1733.53
55.61 -205.79 1733.42
55.50 -205.75 1733.40
55.91 -205.67 1733.66
59.43 -205.96 1733.41
59.13 -205.98 1733.24
59.75 -205.65 1733.55
59.48 -205.80 1733.44
59.45 -205.91 1733.42
55.74 -206.04 1733.25
55.98 -205.89 1733.51
55.87 -205.94 1733.42
55.85 -206.01 1733.35
56.11 -206.02 1733.46
56.08 -206.15 1733.35
56.69 -206.21 1733.65
56.73 -206.28 1733.66
59.35 -206.23 1733.38
59.31 -206.14 1733.35
59.46 -206.20 1733.44
59.82 -205.88 1733.59
59.68 -206.25 1733.56
59.73 -205.84 1733.54
56.02 -206.23 1733.26
56.08 -206.34 1733.24
56.30 -206.56 1733.28
56.50 -206.44 1733.47
59.30 -206.57 1733.32
59.18 -206.24 1733.27
59.59 -206.45 1733.55
59.62 -206.63 1733.61
56.39 -206.72 1733.33
56.65 -206.67 1733.53
56.52 -206.64 1733.44
56.81 -206.42 1733.68
59.45 -206.52 1733.47
59.30 -206.68 1733.32
56.73 -207.34 1733.52
56.70 -207.28 1733.50
56.77 -207.33 1733.56
59.34 -207.02 1733.39
59.27 -206.84 1733.30
59.46 -207.05 1733.55
59.46 -207.19 1733.58
59.46 -206.87 1733.49
56.69 -207.69 1733.39
56.61 -207.63 1733.33
56.77 -207.80 1733.42
57.50 -207.37 1733.39
57.59 -207.42 1733.44
57.52 -207.35 1733.57
59.29 -207.47 1733.49
59.28 -207.51 1733.45
57.06 -207.83 1733.51
57.46 -207.58 1733.30
57.34 -207.74 1733.38
57.95 -207.82 1733.26
58.06 -207.91 1733.24
57.77 -207.60 1733.51
58.05 -207.83 1733.38
58.71 -207.84 1733.44
58.74 -207.82 1733.50
58.16 -207.92 1733.29
58.62 -207.89 1733.35
59.01 -207.75 1733.47
58.96 -207.74 1733.55
56.85 -208.02 1733.33
57.08 -207.96 1733.43
57.20 -208.01 1733.30
58.89 -208.23 1733.30
59.03 -208.31 1733.37
59.27 -208.08 1733.40
59.32 -207.99 1733.36
59.47 -207.96 1733.26
59.52 -208.07 1733.42
58.98 -208.47 1733.29
59.18 -208.35 1733.42
59.08 -208.50 1733.33
59.55 -208.55 1733.52
59.69 -208.52 1733.57
59.85 -208.32 1733.45
59.96 -208.45 1733.46
59.73 -208.19 1733.39
60.05 -208.55 1733.47
60.26 -208.62 1733.29
67.43 -208.55 1733.55
67.65 -208.44 1733.59
67.88 -208.67 1733.41
68.05 -208.45 1733.58
68.08 -208.42 1733.60
68.17 -208.66 1733.37
68.30 -208.61 1733.40
68.44 -208.47 1733.57
59.32 -208.61 1733.41
59.91 -208.71 1733.54
59.81 -208.61 1733.56
59.88 -208.88 1733.49
60.28 -208.79 1733.48
60.17 -208.70 1733.51
60.25 -208.81 1733.51
60.35 -208.92 1733.51
66.81 -208.87 1733.54
67.13 -208.63 1733.57
67.18 -208.91 1733.44
67.37 -208.77 1733.46
67.25 -208.66 1733.53
67.60 -208.74 1733.42
68.42 -208.68 1733.33
68.64 -208.58 1733.45
68.73 -208.60 1733.43
69.24 -208.77 1733.32
69.06 -208.70 1733.36
69.15 -208.66 1733.68
69.47 -208.81 1733.58
69.63 -208.87 1733.44
69.74 -208.93 1733.46
59.74 -208.94 1733.42
59.95 -208.97 1733.47
60.30 -209.18 1733.41
60.18 -209.04 1733.51
60.39 -209.20 1733.40
60.63 -209.30 1733.43
60.80 -209.29 1733.45
60.91 -209.22 1733.36
61.05 -209.37 1733.49
66.87 -209.06 1733.46
67.10 -209.35 1733.33
66.97 -208.92 1733.49
67.41 -208.82 1733.43
67.46 -209.16 1733.26
67.49 -209.11 1733.27
67.23 -209.01 1733.39
70.26 -209.20 1733.37
60.41 -209.56 1733.46
60.63 -209.61 1733.61
60.64 -209.40 1733.50
61.28 -209.27 1733.27
61.41 -209.42 1733.48
61.38 -209.31 1733.24
61.71 -209.45 1733.17
61.43 -209.40 1733.40
61.68 -209.54 1733.50
61.74 -209.48 1733.23
67.24 -209.26 1733.30
67.28 -209.21 1733.30
70.36 -209.26 1733.52
70.63 -209.42 1733.35
70.77 -209.52 1733.39
70.86 -209.61 1733.42
70.76 -209.62 1733.61
60.29 -209.93 1733.52
60.26 -209.83 1733.45
60.38 -209.93 1733.60
60.54 -209.84 1733.68
62.39 -209.80 1733.51
62.53 -209.87 1733.49
70.86 -209.79 1733.68
71.11 -209.92 1733.42
71.06 -209.97 1733.56
60.13 -210.09 1733.43
60.22 -210.05 1733.50
60.27 -210.09 1733.57
62.50 -209.85 1733.38
62.89 -210.19 1733.57
62.97 -210.29 1733.62
67.19 -210.23 1733.48
67.10 -210.11 1733.48
67.45 -210.39 1733.36
70.96 -210.15 1733.76
70.99 -210.00 1733.68
63.35 -210.57 1733.49
63.26 -210.48 1733.49
63.02 -210.23 1733.28
63.27 -210.44 1733.37
67.47 -210.48 1733.42
67.70 -210.59 1733.30
67.55 -210.48 1733.36
71.26 -210.32 1733.49
71.20 -210.46 1733.61
71.09 -210.57 1733.77
71.35 -210.45 1733.46
71.23 -210.73 1733.69
71.26 -210.75 1733.67
71.38 -210.59 1733.47
63.69 -210.88 1733.47
63.66 -210.92 1733.57
63.45 -210.67 1733.50
63.72 -210.84 1733.37
63.78 -211.08 1733.60
64.05 -211.14 1733.37
64.10 -211.22 1733.41
67.72 -210.79 1733.50
67.92 -210.96 1733.47
67.93 -210.87 1733.33
71.45 -210.82 1733.50
71.38 -211.01 1733.64
59.78 -211.27 1733.54
68.21 -211.31 1733.34
68.09 -211.17 1733.45
71.48 -211.09 1733.55
71.47 -211.18 1733.58
71.61 -210.94 1733.37
71.68 -211.31 1733.38
72.00 -211.31 1733.06
71.87 -211.26 1733.19
59.79 -211.34 1733.48
59.91 -211.54 1733.54
59.88 -211.53 1733.39
64.24 -211.46 1733.47
64.12 -211.45 1733.58
64.49 -211.53 1733.37
64.64 -211.66 1733.39
64.63 -211.67 1733.41
68.29 -211.45 1733.45
68.42 -211.63 1733.52
71.80 -211.45 1733.28
71.70 -211.62 1733.40
71.65 -211.56 1733.45
72.04 -211.59 1733.13
71.90 -211.73 1733.28
60.22 -211.83 1733.42
60.08 -211.71 1733.44
60.46 -211.99 1733.49
64.70 -211.68 1733.38
64.69 -211.79 1733.47
64.35 -211.75 1733.61
64.37 -211.88 1733.65
64.78 -212.02 1733.59
65.02 -211.92 1733.43
64.87 -211.79 1733.39
68.47 -211.68 1733.50
68.83 -211.94 1733.49
68.76 -211.88 1733.34
69.00 -212.02 1733.32
69.00 -212.02 1733.37
69.00 -212.01 1733.43
71.50 -211.86 1733.51
71.49 -211.88 1733.51
71.53 -211.90 1733.49
71.91 -211.78 1733.29
71.80 -212.06 1733.34
61.01 -212.27 1733.66
61.10 -212.35 1733.60
61.08 -212.31 1733.68
65.20 -212.09 1733.47
65.34 -212.15 1733.45
65.74 -212.34 1733.42
65.52 -212.09 1733.33
69.82 -212.27 1733.52
69.71 -212.30 1733.30
69.47 -212.22 1733.41
69.94 -212.37 1733.35
70.36 -212.29 1733.62
70.11 -212.30 1733.58
70.47 -212.21 1733.73
70.84 -212.45 1733.44
71.15 -212.31 1733.51
70.72 -212.32 1733.58
70.76 -212.32 1733.57
70.89 -212.29 1733.55
71.28 -212.37 1733.44
71.27 -212.34 1733.46
71.61 -212.16 1733.41
71.29 -212.15 1733.55
71.82 -212.14 1733.31
71.97 -212.41 1733.15
61.24 -212.51 1733.44
61.38 -212.51 1733.64
61.59 -212.62 1733.58
65.93 -212.41 1733.39
66.35 -212.75 1733.32
70.20 -212.49 1733.30
70.10 -212.36 1733.50
70.53 -212.48 1733.40
71.32 -212.61 1733.27
71.58 -212.69 1733.16
71.26 -212.87 1733.05
71.26 -212.73 1733.18
61.56 -212.68 1733.40
61.69 -212.76 1733.28
61.84 -212.76 1733.50
62.34 -212.96 1733.41
62.17 -212.85 1733.49
61.98 -212.84 1733.42
62.60 -212.92 1733.55
62.60 -213.04 1733.43
62.98 -212.99 1733.50
62.72 -213.03 1733.46
63.16 -213.04 1733.48
63.43 -212.97 1733.56
63.32 -213.03 1733.50
63.44 -213.10 1733.46
63.57 -213.22 1733.41
63.72 -213.29 1733.40
63.99 -212.95 1733.62
63.80 -213.12 1733.51
63.75 -213.05 1733.55
66.17 -212.87 1733.45
66.33 -213.14 1733.36
66.33 -212.96 1733.35
64.00 -213.21 1733.48
64.24 -213.43 1733.42
64.19 -213.12 1733.55
64.29 -213.24 1733.51
64.51 -213.18 1733.57
64.31 -213.23 1733.52
64.75 -213.38 1733.52
64.35 -213.20 1733.54
66.03 -213.16 1733.52
66.07 -213.41 1733.49
65.73 -213.50 1733.52
66.22 -213.36 1733.43
66.34 -213.19 1733.36
66.22 -213.48 1733.43
66.16 -213.56 1733.46
64.97 -213.92 1733.32
64.91 -213.39 1733.54
64.93 -213.92 1733.32
64.47 -213.67 1733.34
64.90 -213.85 1733.34
65.21 -213.81 1733.39
65.41 -213.54 1733.51
65.12 -213.70 1733.43
64.98 -213.34 1733.56
65.75 -213.78 1733.45
65.90 -213.64 1733.47
65.75 -213.76 1733.45
66.15 -213.87 1733.42
66.25 -213.75 1733.40
65.43 -213.68 1733.45
65.52 -213.64 1733.48
65.23 -213.95 1733.34
65.67 -213.93 1733.40
65.66 -214.04 1733.35
66.13 -213.98 1733.38
66.25 -213.91 1733.38
43.32 -188.02 1733.64
44.42 -188.15 1733.89
44.55 -188.31 1733.98
44.74 -188.36 1733.76
44.64 -188.24 1733.71
42.81 -188.44 1733.89
42.85 -188.49 1734.02
42.82 -188.36 1733.75
44.75 -188.55 1733.96
44.73 -188.39 1733.82
41.97 -189.11 1733.74
41.91 -189.22 1733.81
41.81 -189.34 1733.82
41.77 -189.36 1733.75
42.67 -188.48 1733.83
42.49 -188.62 1733.80
42.62 -188.56 1733.90
41.99 -189.15 1733.83
42.29 -188.78 1733.75
42.36 -188.72 1733.77
41.76 -189.47 1733.97
42.24 -188.88 1733.83
42.45 -188.83 1734.09
42.29 -188.89 1733.93
66.74 -188.79 1733.75
66.80 -188.89 1733.66
66.98 -188.94 1733.55
67.00 -188.76 1733.66
67.18 -188.62 1733.75
67.12 -188.76 1733.62
67.53 -188.68 1733.57
67.25 -188.84 1733.50
67.43 -188.51 1733.83
67.42 -188.48 1733.88
67.69 -188.57 1733.76
67.94 -188.63 1733.72
68.17 -188.66 1733.92
68.30 -188.70 1733.98
68.37 -188.75 1733.84
68.54 -188.83 1733.68
68.64 -188.86 1733.77
45.11 -189.37 1733.83
45.03 -189.13 1733.89
66.23 -189.37 1733.70
66.09 -189.24 1733.79
66.11 -189.32 1733.75
65.91 -189.04 1733.91
65.91 -189.00 1733.93
66.53 -189.13 1733.66
66.39 -189.21 1733.69
66.54 -188.88 1733.77
68.84 -188.95 1733.78
68.69 -188.90 1733.61
68.94 -189.00 1733.63
69.26 -189.17 1733.77
69.34 -189.23 1733.85
69.51 -189.34 1733.80
41.63 -189.58 1733.80
41.66 -189.41 1733.39
41.57 -189.57 1733.44
41.56 -189.62 1733.55
41.65 -189.50 1733.63
65.60 -189.39 1733.94
65.84 -189.57 1733.80
65.81 -189.06 1733.94
65.97 -189.50 1733.76
65.94 -189.26 1733.83
65.57 -189.60 1733.89
65.86 -189.30 1733.85
69.59 -189.40 1733.74
69.70 -189.47 1733.66
69.67 -189.45 1733.63
69.95 -189.66 1733.74
69.92 -189.63 1733.60
41.42 -189.85 1733.62
41.35 -189.92 1733.54
41.40 -189.88 1733.64
45.24 -189.76 1733.64
45.21 -189.80 1733.79
65.55 -190.18 1733.89
65.57 -189.96 1733.87
65.78 -190.09 1733.82
65.94 -189.61 1733.76
66.04 -189.76 1733.74
65.64 -189.77 1733.84
66.14 -189.50 1733.70
65.49 -189.79 1733.88
70.15 -189.81 1733.77
70.17 -189.80 1733.62
41.19 -190.24 1733.56
41.53 -189.77 1733.86
41.26 -190.11 1733.66
45.27 -190.19 1733.71
70.46 -189.99 1733.59
70.40 -190.00 1733.83
70.53 -190.08 1733.77
70.79 -190.15 1733.70
70.98 -190.26 1733.73
70.72 -190.21 1733.85
71.36 -190.30 1733.66
71.05 -190.20 1733.62
41.12 -190.44 1733.54
41.15 -190.52 1733.71
41.26 -190.20 1733.76
41.23 -190.39 1733.96
41.49 -189.91 1733.95
45.27 -190.32 1733.77
45.24 -190.46 1733.55
66.02 -190.30 1733.83
65.75 -190.23 1733.84
65.85 -190.22 1733.83
66.41 -190.39 1733.77
66.25 -190.09 1733.70
66.26 -190.14 1733.72
66.71 -190.55 1733.77
66.73 -190.56 1733.77
66.61 -190.15 1733.62
66.60 -190.46 1733.76
71.24 -190.42 1733.83
71.14 -190.41 1733.85
71.43 -190.53 1733.86
71.63 -190.41 1733.71
71.82 -190.69 1733.77
72.01 -190.43 1733.57
72.27 -190.68 1733.54
72.26 -190.67 1733.54
41.16 -190.72 1733.65
41.22 -190.82 1733.85
41.21 -190.82 1733.79
45.04 -191.03 1733.54
45.12 -190.83 1733.67
44.96 -191.22 1733.85
45.08 -190.97 1733.79
45.17 -190.74 1733.76
67.13 -190.88 1733.82
67.14 -190.87 1733.81
67.19 -190.76 1733.71
72.21 -190.83 1733.59
71.90 -190.91 1733.75
72.08 -191.00 1733.65
72.12 -191.28 1733.63
72.22 -191.10 1733.59
32.16 -191.16 1733.64
32.20 -191.15 1733.63
32.00 -191.19 1733.89
32.36 -191.12 1733.84
32.50 -191.17 1733.67
32.35 -191.16 1733.65
41.39 -191.41 1733.77
44.96 -191.22 1733.72
67.41 -191.17 1733.90
67.46 -191.05 1733.79
67.53 -191.18 1733.86
67.79 -190.92 1733.55
67.63 -190.98 1733.67
68.13 -191.07 1733.50
68.11 -191.12 1733.57
68.04 -191.35 1733.80
68.02 -191.29 1733.75
72.23 -191.22 1733.58
72.35 -191.22 1733.51
31.24 -191.57 1733.72
32.06 -191.25 1734.20
32.84 -191.32 1733.60
32.88 -191.24 1733.73
32.91 -191.18 1733.86
32.78 -191.17 1733.81
33.14 -191.40 1733.70
33.41 -191.49 1733.78
33.52 -191.56 1733.78
41.58 -191.64 1733.74
41.72 -191.73 1733.68
41.31 -191.41 1733.91
44.82 -191.48 1733.72
44.62 -191.66 1733.86
68.43 -191.42 1733.73
68.38 -191.38 1733.70
68.28 -191.20 1733.55
68.99 -191.62 1733.89
68.87 -191.54 1733.70
68.75 -191.49 1733.67
69.21 -191.65 1733.80
69.19 -191.62 1733.67
69.33 -191.67 1733.70
69.61 -191.72 1733.85
71.57 -191.69 1733.76
71.80 -191.74 1733.57
71.82 -191.73 1733.56
71.99 -191.40 1733.68
31.11 -191.86 1733.86
31.14 -191.88 1733.71
34.02 -191.83 1733.86
34.23 -191.75 1734.07
34.28 -191.85 1734.01
41.98 -192.01 1733.75
41.93 -191.96 1733.74
41.67 -191.83 1733.86
42.21 -192.10 1733.74
42.36 -192.17 1733.76
42.03 -191.98 1733.68
42.49 -192.09 1733.62
42.67 -192.17 1733.66
42.83 -192.19 1733.66
44.15 -191.98 1733.71
44.43 -191.82 1733.51
44.56 -191.72 1733.64
69.69 -191.79 1733.67
69.77 -191.82 1733.63
69.85 -191.74 1733.96
71.10 -191.87 1733.79
70.82 -191.94 1733.76
71.49 -191.87 1733.64
71.20 -191.83 1733.81
71.50 -191.73 1733.78
71.41 -191.69 1733.85
31.17 -192.01 1733.71
31.11 -192.08 1733.78
31.53 -192.24 1733.55
31.40 -192.06 1733.51
34.13 -192.19 1733.66
34.22 -192.10 1733.75
34.43 -192.24 1733.80
42.48 -192.27 1733.84
42.91 -192.24 1733.72
42.76 -192.31 1733.83
43.35 -192.33 1733.85
43.29 -192.23 1733.62
43.70 -192.24 1733.83
43.54 -192.25 1733.71
43.73 -192.21 1733.77
70.09 -191.97 1733.55
70.44 -192.04 1733.60
70.53 -192.00 1733.69
30.91 -192.75 1733.65
30.77 -192.86 1733.76
31.20 -192.42 1733.61
31.14 -192.45 1733.63
30.99 -192.68 1733.60
34.40 -192.50 1733.68
34.41 -192.53 1733.68
34.61 -192.71 1733.73
34.86 -192.72 1733.87
34.61 -192.51 1733.80
30.78 -193.08 1733.70
30.86 -193.03 1733.63
30.69 -193.07 1733.80
34.93 -193.24 1733.82
35.00 -192.78 1733.93
34.90 -193.03 1733.84
34.98 -193.15 1733.87
34.73 -193.22 1733.71
34.84 -193.23 1733.77
34.50 -193.18 1733.59
34.82 -193.95 1733.80
34.79 -193.81 1733.77
34.93 -193.71 1733.84
34.95 -193.85 1733.86
34.48 -193.47 1733.58
34.49 -193.67 1733.61
34.47 -193.51 1733.58
34.70 -193.64 1733.71
30.68 -193.79 1733.56
30.66 -193.91 1733.58
30.67 -193.94 1733.53
30.74 -193.55 1733.37
30.58 -194.32 1733.62
30.58 -194.51 1733.50
34.34 -194.14 1733.61
34.26 -194.25 1733.60
34.18 -194.52 1733.65
34.57 -194.01 1733.69
34.57 -194.00 1733.69
34.58 -194.53 1733.85
34.60 -194.31 1733.79
30.45 -194.58 1733.78
30.50 -194.75 1733.62
33.91 -194.81 1733.67
34.21 -194.75 1733.78
34.15 -194.61 1733.68
30.39 -194.86 1733.84
30.55 -195.05 1733.59
33.57 -195.05 1733.67
34.00 -194.92 1733.78
33.88 -194.91 1733.72
34.34 -194.77 1733.85
34.14 -194.92 1733.85
30.55 -195.13 1733.71
30.87 -195.40 1733.68
30.66 -195.31 1733.82
30.68 -195.22 1733.62
30.72 -195.28 1733.64
31.26 -195.58 1733.94
31.27 -195.60 1734.16
31.23 -195.56 1733.92
31.22 -195.56 1733.92
32.60 -195.59 1733.76
32.56 -195.52 1733.65
32.88 -195.54 1733.84
33.00 -195.33 1733.63
33.38 -195.22 1733.75
33.25 -195.38 1733.85
33.18 -195.21 1733.62
33.25 -195.16 1733.61
33.65 -195.16 1733.82
31.42 -195.64 1733.85
31.79 -195.71 1733.87
32.25 -195.69 1733.82
31.99 -195.65 1733.69
32.39 -195.71 1733.90
50.56 -201.60 1733.84
50.68 -201.54 1733.82
50.91 -201.34 1733.94
50.92 -201.47 1733.86
51.23 -201.59 1733.80
51.02 -201.45 1733.87
51.07 -201.43 1733.89
50.59 -201.90 1733.70
50.62 -202.08 1733.62
50.46 -202.14 1733.71
50.43 -202.03 1733.76
50.74 -201.70 1733.72
51.23 -201.84 1733.62
51.27 -201.83 1733.63
51.50 -201.67 1733.77
51.74 -201.76 1733.75
51.43 -201.68 1733.75
51.96 -201.81 1733.77
52.16 -202.14 1733.53
51.99 -201.89 1733.70
52.35 -202.08 1733.65
52.56 -202.00 1733.85
52.52 -202.00 1733.82
52.83 -202.19 1733.78
52.88 -202.33 1733.61
53.15 -202.31 1733.82
50.07 -202.52 1733.97
50.00 -202.56 1734.04
50.17 -202.73 1733.71
50.22 -202.64 1733.70
53.21 -202.52 1733.48
53.10 -202.49 1733.49
53.55 -202.44 1733.90
53.42 -202.41 1733.86
53.57 -202.63 1733.48
53.70 -202.56 1733.78
53.88 -202.60 1733.81
53.76 -202.65 1733.58
53.93 -202.57 1733.96
54.10 -202.64 1733.94
50.02 -202.81 1733.85
49.95 -202.98 1733.80
54.20 -202.73 1733.72
54.33 -202.75 1733.77
54.48 -202.77 1733.90
54.74 -202.85 1733.79
54.85 -202.89 1733.62
54.96 -202.91 1733.66
55.15 -202.96 1733.61
55.16 -202.95 1733.80
49.92 -203.21 1733.75
49.89 -203.25 1733.76
55.39 -203.04 1733.67
55.51 -203.05 1733.91
55.74 -203.15 1733.64
55.39 -203.06 1733.51
55.88 -203.20 1733.71
49.94 -203.79 1733.86
50.11 -203.80 1733.65
50.09 -203.89 1733.75
56.31 -203.38 1733.94
56.32 -203.39 1734.00
56.87 -203.58 1733.85
57.10 -203.64 1733.69
57.18 -203.66 1733.65
57.52 -203.74 1733.66
57.79 -203.80 1733.69
57.99 -203.81 1733.78
57.90 -203.80 1733.75
58.53 -203.91 1733.90
50.29 -204.06 1733.65
50.14 -204.00 1733.77
50.39 -204.33 1733.78
58.12 -203.95 1733.64
58.46 -204.10 1733.64
58.24 -203.86 1733.84
58.56 -204.13 1733.66
58.58 -204.08 1733.72
58.88 -204.27 1733.67
58.96 -204.28 1733.70
59.12 -204.23 1733.81
59.52 -204.53 1733.72
59.66 -204.50 1733.81
50.91 -204.85 1733.79
50.61 -204.54 1733.74
50.61 -204.56 1733.77
52.42 -204.89 1734.27
52.38 -204.89 1734.34
52.90 -204.82 1734.07
52.95 -204.81 1734.04
53.22 -204.76 1733.93
52.88 -204.88 1733.89
52.87 -204.89 1733.86
53.05 -204.88 1733.83
53.07 -204.88 1733.82
53.90 -204.64 1733.88
53.74 -204.84 1733.67
54.34 -204.78 1733.82
54.19 -204.76 1733.81
54.98 -204.78 1733.95
55.25 -204.83 1733.97
59.20 -204.35 1733.73
59.45 -204.45 1733.76
59.74 -204.99 1733.63
59.79 -204.83 1733.70
59.91 -204.69 1733.81
60.01 -204.78 1733.81
59.97 -204.78 1733.79
51.32 -205.01 1733.50
51.13 -204.85 1733.52
51.21 -205.01 1733.79
51.25 -205.07 1733.85
51.74 -205.14 1733.72
51.63 -205.12 1733.72
51.40 -205.10 1733.81
51.41 -205.09 1733.71
51.47 -205.10 1733.68
51.75 -205.14 1733.99
52.00 -205.12 1733.55
51.93 -205.12 1733.91
51.85 -205.13 1733.77
51.92 -205.07 1734.17
52.21 -205.03 1734.00
51.91 -205.08 1734.13
52.45 -205.01 1733.82
52.30 -205.05 1733.80
52.33 -205.06 1733.75
52.38 -204.97 1734.05
54.31 -205.07 1733.53
54.30 -205.10 1733.50
53.94 -204.98 1733.55
54.35 -205.21 1733.40
54.14 -205.06 1733.51
54.01 -204.90 1733.64
54.87 -205.03 1733.73
54.46 -205.10 1733.53
54.40 -205.16 1733.46
54.62 -205.06 1733.63
55.17 -204.87 1733.92
55.03 -205.10 1733.74
55.36 -205.12 1733.82
55.25 -204.98 1733.87
55.54 -204.91 1733.99
55.68 -204.89 1734.03
60.05 -205.12 1733.72
60.26 -204.93 1733.88
60.11 -204.82 1733.84
55.03 -205.27 1733.61
55.55 -205.17 1733.85
55.46 -205.22 1733.79
55.35 -205.45 1733.60
55.39 -205.49 1733.58
55.75 -205.59 1733.65
55.55 -205.45 1733.67
56.01 -205.50 1733.80
60.33 -205.39 1733.80
60.12 -205.57 1733.71
60.28 -205.21 1733.80
60.14 -205.34 1733.74
60.01 -205.53 1733.67
60.10 -205.43 1733.71
56.07 -205.79 1733.63
56.07 -205.75 1733.65
56.29 -205.48 1733.87
56.18 -205.73 1733.70
56.64 -205.61 1733.91
56.52 -205.52 1733.91
56.81 -205.76 1733.91
60.46 -205.57 1733.84
60.49 -205.53 1733.85
60.57 -205.72 1733.88
56.43 -205.89 1733.69
56.46 -206.05 1733.61
56.78 -205.88 1733.84
56.50 -206.13 1733.58
56.61 -205.90 1733.76
56.82 -206.02 1733.80
56.82 -206.16 1733.76
59.98 -206.24 1733.71
59.97 -206.11 1733.69
60.03 -206.28 1733.75
59.84 -206.14 1733.63
60.65 -206.06 1733.94
60.52 -206.22 1733.92
60.41 -206.19 1733.89
60.38 -205.87 1733.82
60.23 -205.91 1733.77
60.18 -205.87 1733.74
60.44 -205.93 1733.85
60.21 -205.91 1733.76
56.95 -206.35 1733.81
59.82 -206.55 1733.70
60.02 -206.50 1733.78
60.03 -206.50 1733.79
60.01 -206.45 1733.77
56.93 -206.55 1733.76
56.98 -206.70 1733.78
56.82 -206.73 1733.66
59.91 -206.71 1733.80
59.99 -206.81 1733.92
60.06 -206.69 1733.90
59.81 -207.09 1734.00
56.86 -206.97 1733.66
56.85 -207.22 1733.63
57.04 -207.11 1733.74
57.02 -206.98 1733.77
57.26 -207.13 1733.84
57.38 -207.12 1733.83
57.37 -207.27 1733.69
57.48 -207.23 1733.72
57.54 -207.32 1733.68
59.58 -207.06 1733.68
59.59 -207.16 1733.76
56.92 -207.35 1733.63
56.82 -207.37 1733.59
57.16 -207.53 1733.64
57.23 -207.40 1733.67
57.69 -207.38 1733.71
57.91 -207.49 1733.78
58.02 -207.50 1733.81
58.17 -207.57 1733.79
58.95 -207.59 1733.87
59.05 -207.65 1733.74
59.29 -207.50 1733.82
59.36 -207.45 1733.69
59.49 -207.23 1733.64
57.12 -207.71 1733.56
57.89 -207.66 1733.56
58.03 -207.62 1733.71
58.09 -207.66 1733.68
58.15 -207.74 1733.58
58.89 -207.68 1733.77
58.55 -207.77 1733.60
58.70 -207.76 1733.62
59.03 -207.68 1733.62
65.95 -207.71 1733.94
66.30 -207.67 1733.94
66.34 -207.67 1733.94
59.60 -208.25 1733.59
65.77 -207.94 1733.90
65.96 -208.00 1733.85
65.59 -208.04 1733.92
66.38 -207.87 1733.87
66.43 -208.09 1733.79
66.76 -207.83 1733.89
66.75 -207.79 1733.91
66.84 -207.93 1733.86
66.63 -208.08 1733.80
67.30 -208.11 1733.82
67.55 -208.26 1733.72
59.74 -208.39 1733.57
65.78 -208.56 1733.81
65.74 -208.40 1733.82
65.68 -208.57 1733.84
65.99 -208.16 1733.81
66.00 -208.38 1733.77
65.73 -208.19 1733.86
66.30 -208.39 1733.74
66.06 -208.50 1733.73
66.12 -208.12 1733.80
66.21 -208.12 1733.80
66.45 -208.11 1733.78
66.66 -208.39 1733.69
66.59 -208.44 1733.69
66.68 -208.20 1733.76
66.90 -208.41 1733.70
66.88 -208.44 1733.68
67.20 -208.13 1733.80
67.27 -208.49 1733.62
67.76 -208.23 1733.77
67.93 -208.21 1733.79
67.88 -208.17 1733.83
68.09 -208.28 1733.75
68.34 -208.31 1733.82
68.35 -208.32 1733.81
68.42 -208.42 1733.65
68.70 -208.42 1733.84
68.70 -208.43 1733.82
68.93 -208.61 1733.57
68.97 -208.62 1733.57
66.03 -208.85 1733.73
66.03 -208.94 1733.73
65.99 -208.72 1733.75
65.72 -208.78 1733.83
65.79 -208.89 1733.81
65.84 -208.97 1733.80
66.50 -209.06 1733.58
66.43 -208.98 1733.61
66.22 -208.71 1733.69
66.25 -208.69 1733.68
66.71 -208.71 1733.60
66.46 -208.72 1733.63
67.10 -208.46 1733.65
67.02 -208.33 1733.72
69.92 -209.06 1733.75
69.93 -209.05 1733.58
66.03 -209.28 1733.82
66.09 -209.17 1733.74
66.12 -209.45 1733.85
66.54 -209.17 1733.55
66.70 -209.21 1733.49
69.96 -209.09 1733.81
70.06 -209.10 1733.49
70.04 -209.13 1733.80
60.84 -209.68 1733.74
60.87 -209.80 1733.84
61.23 -209.65 1733.82
61.13 -209.84 1733.94
61.12 -209.74 1733.86
61.24 -209.62 1733.79
61.28 -209.49 1733.62
61.54 -209.65 1733.77
61.61 -209.57 1733.64
61.84 -209.63 1733.59
66.75 -209.56 1733.52
66.90 -209.45 1733.41
66.91 -209.52 1733.42
66.94 -209.79 1733.48
66.75 -209.43 1733.48
66.95 -209.63 1733.43
66.37 -209.64 1733.76
66.59 -209.66 1733.63
66.34 -209.57 1733.76
66.21 -209.58 1733.85
66.64 -209.69 1733.61
70.41 -209.35 1733.72
70.46 -209.51 1733.82
70.71 -209.61 1733.68
70.71 -209.66 1733.75
60.81 -209.78 1733.81
60.76 -209.73 1733.76
62.01 -209.74 1733.67
62.22 -209.93 1733.84
62.20 -209.89 1733.80
62.27 -209.86 1733.71
62.44 -209.92 1733.70
66.15 -209.58 1733.88
66.34 -209.70 1733.82
66.78 -209.91 1733.60
70.61 -209.67 1733.84
70.63 -209.73 1733.85
60.24 -210.30 1733.63
60.29 -210.38 1733.73
62.64 -210.01 1733.67
62.76 -210.10 1733.70
62.66 -210.33 1733.88
66.79 -210.28 1733.87
66.78 -210.23 1733.83
66.74 -210.03 1733.73
66.92 -210.33 1733.79
67.09 -210.25 1733.57
70.77 -210.02 1733.87
70.82 -209.99 1733.82
70.72 -209.76 1733.80
70.73 -209.85 1733.83
59.97 -210.62 1733.51
59.98 -210.79 1733.62
60.18 -210.49 1733.68
60.14 -210.55 1733.68
62.82 -210.63 1733.90
62.82 -210.62 1733.89
62.81 -210.62 1733.90
63.06 -210.64 1733.76
63.05 -210.40 1733.67
63.08 -210.60 1733.74
63.17 -210.75 1733.76
66.96 -210.43 1733.82
66.99 -210.51 1733.88
67.25 -210.53 1733.64
67.43 -210.82 1733.84
59.82 -210.94 1733.52
59.97 -210.89 1733.65
59.93 -211.01 1733.66
63.45 -210.94 1733.74
63.19 -210.91 1733.82
67.27 -210.75 1733.86
67.70 -210.98 1733.84
67.81 -211.04 1733.87
67.62 -210.85 1733.69
71.12 -210.84 1733.82
71.12 -211.05 1733.86
59.96 -211.26 1733.73
60.11 -211.40 1733.81
63.50 -210.84 1733.67
63.49 -210.93 1733.73
68.10 -211.24 1733.66
67.99 -211.18 1733.92
67.94 -211.14 1733.95
71.06 -211.18 1733.92
71.30 -211.27 1733.73
59.91 -211.41 1733.65
60.23 -211.49 1733.84
59.95 -211.51 1733.61
60.24 -211.59 1733.77
63.74 -211.21 1733.72
63.74 -211.51 1733.81
63.82 -211.37 1733.72
64.06 -211.51 1733.64
64.02 -211.53 1733.67
68.24 -211.38 1733.74
68.31 -211.47 1733.77
68.55 -211.65 1733.86
71.24 -211.41 1733.77
71.15 -211.50 1733.84
71.59 -211.57 1733.50
71.50 -211.71 1733.56
60.58 -212.01 1733.61
60.52 -211.85 1733.75
60.75 -211.97 1733.78
63.92 -211.94 1733.80
63.87 -211.69 1733.79
64.00 -212.03 1733.79
64.28 -211.94 1733.69
64.32 -212.14 1733.73
68.58 -211.76 1733.66
68.72 -211.79 1733.85
68.69 -211.86 1733.63
69.27 -212.00 1733.84
69.23 -211.99 1733.85
70.51 -211.94 1733.94
70.13 -211.96 1733.97
71.00 -212.11 1733.69
70.60 -212.09 1733.82
70.90 -212.01 1733.79
71.05 -211.75 1733.83
70.76 -211.88 1733.91
71.31 -211.74 1733.68
71.46 -211.74 1733.59
71.37 -211.78 1733.63
60.78 -212.11 1733.66
61.13 -212.18 1733.78
61.14 -212.04 1733.87
61.14 -212.33 1733.69
61.34 -212.42 1733.69
61.51 -212.23 1733.85
61.69 -212.22 1733.88
61.66 -212.28 1733.86
63.80 -212.13 1733.82
63.71 -212.20 1733.82
64.02 -212.26 1733.78
64.10 -212.28 1733.77
64.32 -212.33 1733.74
64.45 -212.27 1733.72
64.51 -212.49 1733.72
64.56 -212.31 1733.71
64.83 -212.36 1733.68
65.12 -212.21 1733.57
65.02 -212.15 1733.57
65.01 -212.34 1733.63
69.17 -212.06 1733.66
69.49 -212.14 1733.66
69.90 -212.26 1733.61
69.69 -212.23 1733.55
69.95 -212.17 1733.73
70.02 -212.28 1733.59
69.86 -212.17 1733.72
70.25 -212.07 1733.87
70.09 -212.10 1733.81
70.23 -212.06 1733.88
61.66 -212.61 1733.64
61.79 -212.63 1733.65
62.01 -212.76 1733.57
62.08 -212.60 1733.70
61.98 -212.58 1733.70
62.35 -212.50 1733.80
62.26 -212.48 1733.81
62.63 -212.88 1733.59
62.76 -212.73 1733.69
62.83 -212.87 1733.62
63.13 -212.84 1733.64
63.12 -212.42 1733.80
63.09 -212.43 1733.80
63.19 -212.74 1733.67
63.30 -212.77 1733.66
63.46 -212.62 1733.72
63.29 -212.81 1733.65
63.56 -212.76 1733.67
63.42 -212.24 1733.84
63.68 -212.36 1733.81
63.70 -212.58 1733.73
64.17 -212.66 1733.71
64.43 -212.60 1733.71
64.29 -212.68 1733.70
64.53 -212.83 1733.67
64.56 -212.69 1733.70
64.81 -212.66 1733.69
65.27 -212.80 1733.64
64.91 -212.55 1733.68
65.01 -212.61 1733.67
65.25 -212.35 1733.58
65.36 -212.70 1733.62
65.39 -212.34 1733.54
65.46 -212.44 1733.54
65.83 -212.39 1733.41
65.83 -212.65 1733.51
65.86 -212.70 1733.52
65.91 -212.59 1733.47
63.76 -212.86 1733.65
63.84 -212.58 1733.74
64.16 -212.85 1733.67
66.04 -212.79 1733.51
66.03 -212.77 1733.51
64.85 -213.23 1733.59
64.82 -213.23 1733.59
64.77 -212.90 1733.67
65.15 -213.00 1733.61
65.10 -213.16 1733.58
65.20 -212.87 1733.64
65.16 -212.99 1733.62
65.40 -213.16 1733.58
65.23 -213.21 1733.58
65.47 -213.11 1733.58
65.34 -213.22 1733.57
65.95 -213.05 1733.54
65.69 -212.97 1733.58
65.99 -213.05 1733.54
65.81 -213.30 1733.53
43.51 -188.04 1733.77
43.62 -188.00 1733.78
43.93 -188.04 1733.87
44.23 -188.14 1733.97
44.12 -188.12 1733.99
42.91 -188.59 1734.23
42.79 -188.59 1734.14
43.39 -188.29 1734.04
43.10 -188.30 1733.93
43.44 -188.34 1734.15
43.47 -188.38 1734.24
43.42 -188.39 1734.22
43.43 -188.17 1733.92
43.66 -188.27 1734.14
43.96 -188.25 1734.14
44.31 -188.28 1734.14
44.27 -188.32 1734.19
44.45 -188.31 1734.06
44.53 -188.45 1734.18
66.54 -188.49 1734.20
66.64 -188.47 1734.20
66.58 -188.50 1734.18
66.41 -188.68 1733.99
66.71 -188.70 1733.83
66.77 -188.59 1733.97
66.84 -188.66 1733.80
67.19 -188.34 1734.16
67.28 -188.32 1734.17
66.99 -188.59 1733.84
67.02 -188.51 1733.95
67.34 -188.28 1734.25
67.58 -188.45 1733.99
67.41 -188.42 1734.03
67.63 -188.44 1734.02
67.90 -188.57 1733.89
42.02 -189.24 1734.04
42.56 -188.76 1734.23
42.43 -188.93 1734.35
42.36 -189.01 1734.38
42.55 -188.80 1734.31
41.97 -189.29 1734.04
44.69 -188.74 1734.31
44.76 -188.72 1734.14
44.81 -188.69 1734.00
65.51 -189.03 1734.07
65.46 -189.04 1734.08
65.79 -188.98 1733.99
65.63 -188.83 1734.15
65.93 -188.64 1734.22
66.23 -188.81 1733.95
66.10 -188.79 1734.03
65.99 -188.88 1733.99
66.25 -188.69 1734.04
67.96 -188.56 1734.01
68.39 -188.74 1734.03
68.68 -188.88 1734.08
68.65 -188.86 1734.00
44.84 -188.86 1734.12
44.93 -188.99 1734.04
44.97 -189.16 1734.10
44.97 -189.30 1734.23
65.20 -189.21 1734.11
65.19 -189.24 1734.10
68.73 -188.92 1734.11
68.81 -188.99 1734.13
69.18 -189.14 1733.96
69.26 -189.20 1734.00
41.80 -189.51 1734.45
41.64 -189.69 1734.43
41.69 -189.68 1734.65
41.59 -189.79 1734.63
41.51 -189.83 1734.40
41.69 -189.67 1734.60
45.01 -189.51 1734.26
45.09 -189.45 1733.96
45.08 -189.41 1733.95
65.19 -189.59 1734.03
65.20 -189.75 1734.00
65.23 -189.45 1734.04
65.22 -189.58 1734.02
65.37 -189.55 1733.97
65.45 -189.40 1733.98
65.68 -189.10 1733.97
69.28 -189.35 1734.20
69.46 -189.41 1734.08
69.39 -189.28 1733.97
69.76 -189.70 1734.05
69.82 -189.82 1734.13
69.82 -189.61 1733.90
69.91 -189.81 1734.02
69.93 -189.78 1733.98
45.18 -189.94 1733.99
45.18 -189.98 1734.00
64.82 -189.85 1734.12
64.57 -189.75 1734.24
65.13 -189.83 1734.00
64.71 -189.77 1734.18
64.52 -190.03 1734.17
64.65 -189.69 1734.23
41.33 -190.23 1734.07
41.44 -190.02 1734.03
41.45 -189.94 1734.28
41.44 -189.96 1734.31
41.42 -189.96 1734.49
41.64 -189.64 1733.98
45.20 -190.02 1733.98
45.16 -190.26 1734.08
45.24 -190.20 1733.91
70.11 -190.00 1734.07
70.19 -190.03 1734.04
45.19 -190.45 1734.03
65.15 -190.12 1733.97
64.72 -190.53 1734.04
64.87 -190.64 1734.01
64.98 -190.24 1733.99
64.92 -190.54 1734.00
65.03 -189.97 1734.01
64.32 -190.36 1734.17
65.13 -189.97 1733.97
64.87 -190.16 1734.02
64.84 -190.02 1734.06
64.55 -190.47 1734.06
65.50 -190.18 1733.90
65.37 -190.31 1733.93
65.22 -190.52 1733.95
65.31 -190.46 1733.94
65.55 -190.62 1733.95
65.20 -190.63 1733.97
65.59 -190.45 1733.91
65.81 -190.55 1733.92
66.17 -190.65 1733.93
66.10 -190.50 1733.88
65.88 -190.65 1733.94
66.20 -190.73 1733.96
66.33 -190.66 1733.90
