40.04 -200.28 1725.55
39.96 -200.41 1725.73
39.93 -200.51 1725.44
39.72 -201.01 1725.70
39.80 -200.87 1725.60
39.84 -200.77 1725.58
26.10 -200.93 1725.61
26.13 -201.01 1725.75
26.13 -201.01 1725.84
39.66 -201.12 1725.77
26.25 -201.46 1725.83
26.25 -201.59 1725.58
26.26 -201.47 1725.62
39.66 -201.39 1725.61
39.65 -201.38 1725.64
39.67 -201.58 1725.46
26.23 -201.94 1725.75
26.21 -201.98 1725.61
39.58 -201.83 1725.45
39.50 -201.88 1725.55
39.45 -201.93 1725.62
26.30 -202.39 1725.72
39.34 -202.11 1725.65
39.27 -202.29 1725.55
39.22 -202.42 1725.54
39.22 -202.24 1725.77
39.16 -202.47 1725.68
26.40 -202.73 1725.57
26.36 -202.44 1725.71
26.45 -202.66 1725.72
39.11 -202.63 1725.61
26.44 -203.21 1725.54
26.41 -203.23 1725.49
26.45 -202.98 1725.70
39.02 -203.06 1725.47
26.50 -203.28 1725.66
26.51 -203.34 1725.65
26.52 -203.32 1725.69
26.79 -203.61 1725.78
38.93 -203.02 1725.67
38.90 -203.16 1725.60
26.76 -203.62 1725.50
26.83 -203.81 1725.73
26.95 -203.69 1725.84
26.77 -203.83 1725.65
38.67 -203.69 1725.54
38.55 -203.77 1725.62
38.58 -203.72 1725.62
38.93 -203.29 1725.44
38.86 -203.30 1725.56
26.84 -203.73 1725.54
27.08 -204.14 1725.64
26.97 -203.98 1725.59
38.28 -204.08 1725.66
38.08 -204.31 1725.71
38.39 -204.02 1725.55
38.39 -203.90 1725.73
27.17 -204.25 1725.55
27.26 -204.63 1725.61
27.43 -204.50 1725.82
27.45 -204.55 1725.81
27.44 -204.55 1725.81
37.63 -204.68 1725.74
37.74 -204.58 1725.79
38.01 -204.37 1725.65
27.42 -204.78 1725.71
27.65 -204.62 1725.89
27.30 -204.71 1725.70
27.34 -204.66 1725.50
27.77 -205.00 1725.75
27.64 -204.87 1725.75
27.56 -204.77 1725.45
27.68 -205.01 1725.53
27.91 -205.23 1725.62
27.91 -205.23 1725.62
28.17 -205.35 1725.64
28.40 -205.50 1725.58
27.88 -205.16 1725.55
28.21 -205.38 1725.57
28.09 -205.15 1725.81
28.19 -205.22 1725.78
28.16 -205.25 1725.75
28.37 -205.34 1725.75
37.39 -204.94 1725.70
37.29 -205.08 1725.66
37.48 -204.86 1725.62
37.56 -204.75 1725.73
37.61 -204.78 1725.48
28.63 -205.52 1725.77
28.75 -205.46 1725.97
28.59 -205.40 1725.87
28.65 -205.41 1725.92
28.43 -205.19 1725.92
36.84 -205.50 1725.71
36.82 -205.53 1725.69
37.13 -205.37 1725.49
28.90 -205.75 1725.81
29.12 -205.96 1725.81
28.89 -205.82 1725.71
28.95 -205.76 1725.85
28.62 -205.64 1725.62
28.62 -205.63 1725.63
29.14 -206.08 1725.70
29.49 -206.22 1725.86
29.59 -206.22 1725.93
29.69 -206.33 1725.90
29.77 -206.58 1725.75
29.43 -206.03 1725.98
29.75 -206.63 1725.70
29.47 -206.04 1726.00
36.49 -205.90 1725.48
36.58 -205.73 1725.64
36.72 -205.71 1725.53
36.85 -205.67 1725.46
36.72 -205.75 1725.47
35.84 -206.16 1725.68
35.86 -206.17 1725.64
36.07 -206.18 1725.44
36.32 -205.96 1725.54
36.38 -205.96 1725.48
35.01 -206.57 1725.51
35.34 -206.43 1725.52
35.18 -206.46 1725.63
35.40 -206.33 1725.75
35.78 -206.25 1725.59
35.49 -206.29 1725.76
35.60 -206.32 1725.58
29.97 -206.40 1726.01
30.10 -206.69 1725.87
30.02 -206.72 1725.81
29.78 -206.72 1725.66
29.88 -206.44 1725.93
30.04 -206.74 1725.81
30.30 -207.02 1725.75
34.14 -207.02 1725.52
34.20 -206.97 1725.54
34.28 -206.96 1725.51
34.66 -206.68 1725.66
34.49 -206.92 1725.45
34.74 -206.59 1725.72
34.88 -206.62 1725.56
30.42 -207.26 1725.68
30.00 -206.96 1725.63
30.36 -207.32 1725.63
29.80 -206.79 1725.61
30.55 -207.50 1725.61
30.51 -207.47 1725.61
33.64 -207.22 1725.50
33.64 -207.05 1725.77
33.88 -206.96 1725.77
33.70 -207.20 1725.51
30.26 -207.35 1725.47
30.04 -207.10 1725.52
30.78 -207.66 1725.56
30.74 -207.59 1725.62
30.96 -207.62 1725.70
30.84 -207.73 1725.50
33.10 -207.12 1725.91
33.16 -207.37 1725.69
33.15 -207.17 1725.86
33.57 -207.24 1725.53
33.41 -207.14 1725.77
33.20 -207.39 1725.66
31.81 -207.23 1725.93
31.79 -207.25 1725.99
31.69 -207.42 1725.90
31.45 -207.66 1725.60
31.58 -207.55 1725.63
32.09 -207.30 1725.68
31.84 -207.23 1725.88
31.89 -207.28 1725.72
32.07 -207.20 1725.98
32.12 -207.26 1725.81
79.64 -216.76 1725.62
79.61 -216.84 1725.54
79.79 -216.59 1725.75
79.83 -216.68 1725.62
79.87 -216.63 1725.66
80.18 -216.49 1725.80
80.66 -216.62 1725.66
80.83 -216.66 1725.71
80.84 -216.76 1725.50
81.01 -216.78 1725.67
79.11 -217.28 1725.53
79.08 -217.32 1725.53
79.34 -216.97 1725.60
79.45 -216.90 1725.60
81.27 -217.11 1725.81
81.16 -217.01 1725.61
81.33 -217.40 1725.70
81.34 -217.41 1725.56
78.67 -217.90 1725.76
78.84 -217.65 1725.61
78.69 -217.86 1725.70
81.34 -217.79 1725.76
81.35 -217.70 1725.74
81.39 -217.85 1725.51
78.64 -218.29 1725.66
78.64 -218.19 1725.81
81.35 -218.08 1725.64
81.31 -218.26 1725.66
78.64 -218.34 1725.76
81.30 -218.30 1725.65
81.29 -218.52 1725.52
78.74 -218.82 1725.49
78.72 -218.72 1725.62
81.22 -218.70 1725.55
78.83 -219.00 1725.63
78.97 -219.19 1725.74
80.60 -219.15 1725.82
80.89 -219.09 1725.57
80.68 -219.19 1725.69
80.79 -219.21 1725.54
79.26 -219.52 1725.63
79.06 -219.34 1725.67
79.58 -219.68 1725.53
79.53 -219.63 1725.60
79.40 -219.65 1725.47
79.88 -219.48 1725.84
80.06 -219.50 1725.77
79.82 -219.63 1725.60
80.05 -219.66 1725.52
79.64 -219.72 1725.47
80.38 -219.30 1725.82
80.23 -219.60 1725.54
80.17 -219.56 1725.63
80.24 -219.45 1725.73
80.61 -219.48 1725.38
80.41 -219.53 1725.48
80.51 -219.32 1725.69
80.44 -219.42 1725.61
69.48 -221.97 1725.75
69.64 -222.09 1725.58
69.35 -222.04 1725.67
69.97 -222.00 1725.77
69.69 -222.14 1725.53
69.81 -222.08 1725.62
70.06 -222.04 1725.73
68.62 -222.35 1725.77
68.69 -222.29 1725.74
68.96 -222.19 1725.65
68.85 -222.32 1725.57
69.18 -222.12 1725.60
70.25 -222.12 1725.67
70.36 -222.21 1725.59
70.49 -222.08 1725.82
70.70 -222.11 1725.88
70.75 -222.26 1725.70
68.48 -222.62 1725.75
68.68 -222.51 1725.59
70.83 -222.31 1725.68
71.04 -222.53 1725.55
71.10 -222.46 1725.67
71.04 -222.47 1725.61
71.44 -222.67 1725.73
71.22 -222.65 1725.55
71.23 -222.57 1725.66
68.48 -223.07 1725.66
68.42 -222.95 1725.80
71.58 -222.95 1725.57
71.53 -222.79 1725.73
68.42 -223.45 1725.51
68.46 -223.20 1725.66
71.66 -223.10 1725.71
71.80 -223.40 1725.62
68.36 -223.68 1725.56
71.87 -223.66 1725.67
71.90 -223.55 1725.49
72.00 -223.92 1725.54
68.30 -223.99 1725.56
68.35 -224.27 1725.67
68.39 -224.00 1725.71
68.42 -223.63 1725.75
72.07 -224.06 1725.57
71.95 -224.11 1725.88
72.00 -224.04 1725.76
68.48 -224.25 1725.88
68.50 -224.44 1725.88
72.27 -224.50 1725.66
72.22 -224.42 1725.56
68.41 -224.64 1725.75
68.53 -224.57 1725.90
68.49 -224.87 1725.80
72.25 -224.59 1725.50
72.28 -224.65 1725.59
72.29 -224.62 1725.76
68.49 -225.08 1725.77
68.35 -225.03 1725.61
68.33 -225.03 1725.59
72.29 -224.88 1725.48
72.29 -225.08 1725.71
68.30 -225.19 1725.52
68.25 -225.44 1725.43
68.41 -225.41 1725.57
68.38 -225.44 1725.54
72.31 -225.49 1725.63
72.35 -225.41 1725.56
72.31 -225.23 1725.60
69.02 -225.98 1725.59
69.06 -225.75 1725.79
68.97 -225.95 1725.59
68.93 -226.15 1725.40
68.76 -225.89 1725.53
72.30 -225.58 1725.62
72.34 -225.67 1725.60
72.15 -225.81 1725.79
69.34 -225.92 1725.81
69.20 -226.19 1725.52
69.14 -226.11 1725.55
69.54 -226.07 1725.79
69.53 -226.01 1725.83
72.07 -226.06 1725.79
72.12 -225.95 1725.79
72.48 -226.14 1725.52
72.43 -226.01 1725.54
69.92 -226.28 1725.75
69.79 -226.22 1725.77
70.25 -226.52 1725.58
70.33 -226.61 1725.52
70.07 -226.36 1725.69
70.16 -226.38 1725.70
70.45 -226.57 1725.61
70.44 -226.53 1725.64
71.97 -226.34 1725.75
72.30 -226.28 1725.65
71.60 -226.36 1725.79
71.92 -226.60 1725.66
72.44 -226.55 1725.53
72.40 -226.51 1725.55
72.41 -226.34 1725.58
70.67 -226.72 1725.56
70.84 -226.79 1725.53
70.95 -226.56 1725.71
71.13 -226.75 1725.57
71.01 -226.75 1725.57
71.24 -226.82 1725.54
71.35 -226.75 1725.59
71.23 -226.85 1725.52
71.56 -226.67 1725.65
71.70 -226.60 1725.68
71.82 -226.62 1725.66
71.84 -226.78 1725.57
72.26 -226.68 1725.53
72.01 -226.96 1725.47
71.98 -226.71 1725.60
72.19 -226.82 1725.48
72.14 -226.78 1725.53
62.00 -159.50 1725.95
61.84 -159.57 1725.91
62.08 -159.50 1725.95
62.11 -159.60 1725.83
62.43 -159.56 1725.87
61.12 -159.78 1726.06
61.23 -159.68 1726.08
61.15 -159.80 1726.04
61.42 -159.60 1726.05
61.57 -159.70 1725.90
61.68 -159.83 1725.72
61.65 -159.80 1725.76
61.76 -159.73 1725.77
62.65 -159.56 1725.96
62.88 -159.65 1725.99
63.01 -159.70 1725.98
63.08 -159.74 1726.00
63.26 -159.87 1725.87
60.70 -160.26 1726.03
60.90 -160.24 1725.92
61.18 -160.00 1725.87
61.23 -160.00 1725.84
63.76 -160.37 1725.89
60.56 -160.41 1726.12
60.83 -160.64 1725.86
60.68 -160.29 1726.04
60.81 -160.47 1725.91
63.64 -160.29 1726.10
63.72 -160.55 1726.11
60.69 -160.77 1726.06
60.87 -160.72 1725.85
60.76 -160.70 1725.94
60.75 -160.80 1726.01
63.68 -160.65 1726.25
63.85 -160.93 1726.01
60.75 -160.90 1726.06
61.11 -161.24 1725.97
61.06 -161.08 1725.84
63.81 -160.97 1726.08
64.00 -161.13 1725.78
61.30 -161.44 1725.98
61.23 -161.29 1725.84
61.56 -161.65 1725.79
61.46 -161.55 1725.86
63.99 -161.29 1725.77
63.86 -161.40 1725.91
64.14 -161.21 1725.58
64.13 -161.22 1725.59
63.99 -161.55 1725.71
64.01 -161.61 1725.69
61.75 -161.87 1725.94
61.47 -161.63 1726.02
61.85 -161.95 1725.90
63.70 -161.94 1725.82
63.70 -161.85 1725.88
64.02 -161.84 1725.54
63.81 -161.80 1725.80
63.86 -161.87 1725.69
62.04 -162.08 1725.91
62.08 -162.11 1725.94
62.16 -162.13 1726.05
62.41 -162.25 1725.94
62.81 -162.31 1725.85
62.76 -162.28 1725.95
63.37 -162.02 1726.06
63.09 -162.07 1726.20
63.63 -162.01 1725.84
62.75 -162.34 1725.78
62.49 -162.29 1725.85
29.40 -188.19 1725.88
29.79 -188.26 1726.06
29.73 -188.20 1725.96
29.69 -188.13 1725.84
30.13 -188.22 1726.02
30.09 -188.10 1725.79
30.41 -188.16 1725.93
30.37 -188.17 1725.93
30.91 -188.18 1726.03
30.76 -188.22 1726.07
31.02 -188.13 1725.98
31.01 -188.20 1726.08
31.28 -187.99 1725.74
31.29 -188.00 1725.76
31.58 -188.02 1725.88
31.65 -187.97 1725.82
31.43 -188.00 1725.78
31.56 -188.12 1726.01
31.79 -188.07 1725.93
31.98 -187.90 1725.72
28.76 -188.32 1725.81
28.77 -188.40 1725.90
28.81 -188.25 1725.77
28.92 -188.31 1725.87
28.94 -188.24 1725.80
29.27 -188.19 1725.85
29.19 -188.45 1726.12
30.45 -188.21 1726.02
32.27 -188.08 1725.81
28.02 -188.92 1725.89
28.01 -188.93 1725.88
28.28 -188.83 1725.98
28.38 -188.59 1725.86
33.25 -188.77 1726.07
33.37 -188.69 1725.81
33.63 -188.88 1725.98
33.63 -188.73 1725.68
27.88 -189.25 1726.03
27.80 -189.26 1725.99
28.09 -188.99 1725.98
27.92 -189.04 1725.91
33.94 -189.02 1725.96
34.09 -189.13 1726.01
33.95 -188.96 1725.84
34.06 -188.98 1725.78
34.25 -189.25 1726.10
34.56 -189.28 1725.88
34.50 -189.28 1725.94
27.22 -189.60 1725.87
26.96 -189.72 1725.78
27.34 -189.67 1726.01
27.25 -189.70 1725.98
27.36 -189.41 1725.82
27.41 -189.42 1725.86
27.55 -189.52 1726.03
28.02 -189.30 1726.15
34.67 -189.40 1725.98
34.72 -189.38 1725.91
34.72 -189.39 1725.93
34.99 -189.47 1725.87
34.98 -189.43 1725.82
26.74 -190.00 1725.85
27.13 -189.86 1726.04
27.10 -189.96 1726.13
35.30 -189.62 1725.91
35.41 -189.73 1725.98
35.22 -189.54 1725.84
35.36 -189.57 1725.79
35.49 -189.67 1725.85
35.64 -189.87 1726.02
35.67 -189.78 1725.90
35.81 -189.81 1725.83
36.02 -189.99 1725.98
35.99 -189.79 1725.70
35.95 -189.89 1725.86
26.94 -190.10 1726.14
26.77 -190.23 1726.12
26.84 -190.12 1726.08
35.95 -190.02 1726.04
36.30 -190.16 1726.02
36.26 -190.19 1726.09
36.49 -190.33 1726.07
36.51 -190.08 1725.66
36.77 -190.39 1725.81
36.71 -190.35 1725.81
26.23 -190.50 1725.81
26.27 -190.43 1725.79
26.17 -190.77 1725.95
26.12 -190.76 1725.91
26.30 -190.65 1726.00
26.47 -190.43 1726.01
26.27 -190.66 1725.97
36.68 -190.52 1726.12
36.84 -190.59 1726.01
36.91 -190.72 1726.13
37.03 -190.73 1726.05
37.07 -190.73 1726.03
36.98 -190.62 1725.93
25.97 -190.79 1725.77
25.93 -190.78 1725.72
25.80 -191.32 1725.92
25.85 -191.14 1725.86
25.82 -191.50 1726.05
25.92 -190.90 1725.79
25.81 -190.93 1725.70
37.51 -190.95 1725.93
37.59 -190.97 1725.77
25.59 -191.53 1725.81
37.86 -191.32 1725.92
37.79 -191.45 1726.09
37.84 -191.47 1726.06
25.51 -191.92 1725.95
25.66 -191.72 1726.01
25.67 -191.84 1726.09
37.90 -191.85 1726.27
38.03 -192.00 1726.26
38.17 -192.03 1726.18
37.93 -191.74 1726.20
38.24 -191.81 1726.04
38.06 -191.58 1725.98
38.01 -191.42 1725.84
38.13 -191.52 1725.86
38.06 -191.53 1725.93
38.13 -191.60 1725.94
25.19 -192.20 1725.68
25.40 -192.26 1726.00
25.44 -192.27 1726.04
38.38 -191.99 1726.03
38.35 -192.34 1726.22
38.53 -191.96 1725.92
38.49 -192.15 1726.04
38.52 -191.99 1725.94
38.70 -192.07 1725.87
38.83 -192.10 1725.80
38.98 -192.22 1725.75
38.88 -192.23 1725.83
25.23 -192.30 1725.76
25.19 -192.26 1725.69
25.30 -192.73 1726.01
25.34 -192.46 1725.99
38.88 -192.48 1725.94
39.06 -192.59 1725.86
39.00 -192.44 1725.84
25.13 -192.88 1725.78
25.28 -192.81 1726.01
25.20 -193.04 1725.95
25.22 -193.01 1725.96
38.81 -192.61 1726.04
38.73 -192.59 1726.09
39.36 -193.07 1725.78
39.28 -192.97 1725.82
25.01 -193.35 1725.78
25.17 -193.33 1726.00
39.18 -193.37 1726.03
39.05 -193.08 1726.04
39.11 -193.28 1726.07
24.89 -193.77 1725.80
25.03 -193.70 1725.93
25.13 -193.40 1725.97
39.28 -193.63 1726.05
39.42 -193.68 1725.95
39.44 -193.60 1725.91
24.98 -194.04 1725.94
25.02 -194.10 1725.98
25.01 -193.97 1725.95
39.74 -194.06 1725.81
39.56 -194.00 1725.95
39.38 -193.77 1726.02
39.54 -193.84 1725.91
24.81 -194.18 1725.80
24.85 -194.27 1725.85
25.03 -194.41 1726.01
25.11 -194.55 1726.08
39.61 -194.20 1725.98
39.90 -194.44 1725.81
39.85 -194.40 1725.84
25.02 -194.68 1726.01
24.87 -194.54 1725.90
39.82 -194.49 1725.89
39.97 -194.73 1725.84
39.98 -194.83 1725.86
24.99 -194.80 1725.99
25.09 -194.69 1726.06
25.06 -194.90 1726.05
39.98 -194.89 1725.89
40.04 -194.91 1725.84
24.76 -195.40 1725.86
24.70 -195.00 1725.79
25.01 -195.11 1726.01
24.83 -195.57 1725.92
24.86 -195.51 1725.94
25.08 -195.52 1726.09
25.16 -195.65 1726.16
39.99 -195.10 1725.95
39.94 -195.05 1725.98
40.12 -195.14 1725.83
40.11 -195.05 1725.81
40.17 -195.39 1725.85
40.27 -195.59 1725.74
40.07 -195.42 1725.96
25.03 -195.70 1726.07
24.71 -195.62 1725.84
24.74 -196.10 1725.89
24.93 -195.97 1726.01
25.18 -195.76 1726.18
25.08 -196.12 1726.11
40.29 -196.27 1725.83
40.20 -196.28 1725.92
40.34 -196.08 1725.74
40.00 -196.27 1726.12
40.17 -195.63 1725.86
40.13 -195.65 1725.91
40.15 -195.70 1725.89
24.92 -196.27 1726.01
40.14 -196.33 1725.99
40.13 -196.71 1726.02
40.19 -196.71 1725.96
40.44 -196.70 1725.70
40.27 -196.69 1725.88
25.01 -196.64 1726.09
25.00 -196.56 1726.08
24.87 -196.89 1725.95
40.38 -197.23 1725.77
40.33 -197.08 1725.83
25.17 -197.66 1726.22
25.20 -197.81 1726.17
40.13 -197.70 1726.04
40.21 -197.20 1725.95
40.26 -197.59 1725.89
40.31 -197.51 1725.85
40.22 -198.00 1725.94
40.35 -197.54 1725.81
40.32 -197.85 1725.83
40.34 -197.99 1725.81
40.20 -198.09 1725.96
40.16 -198.15 1726.00
40.16 -198.61 1725.97
40.23 -198.53 1725.91
40.19 -198.94 1725.90
40.34 -198.82 1725.74
40.12 -198.91 1725.98
40.15 -198.76 1725.97
39.98 -199.24 1726.09
40.14 -199.20 1725.91
40.27 -199.17 1725.77
40.05 -199.49 1725.95
40.16 -199.38 1725.85
25.66 -199.92 1725.85
25.62 -199.95 1725.64
25.67 -200.04 1725.74
39.98 -199.82 1725.95
39.90 -200.30 1725.88
39.98 -200.07 1725.87
39.85 -200.08 1726.03
25.79 -200.25 1725.79
25.93 -200.51 1725.78
40.00 -200.26 1725.77
39.91 -200.48 1725.76
39.67 -200.49 1726.08
39.67 -200.49 1726.08
39.48 -200.98 1726.11
39.71 -200.81 1725.87
39.80 -200.76 1725.76
39.64 -201.02 1725.86
39.28 -201.46 1726.11
39.59 -201.37 1725.75
39.37 -201.55 1725.94
39.35 -201.51 1726.00
26.16 -202.21 1725.77
26.26 -202.00 1725.86
26.41 -202.14 1725.98
39.00 -202.05 1726.15
39.17 -201.98 1725.98
39.17 -201.85 1726.04
39.31 -201.98 1725.79
39.38 -201.78 1725.82
39.44 -201.71 1725.77
39.37 -201.91 1725.76
26.47 -202.44 1725.92
26.51 -202.45 1725.94
38.94 -202.31 1726.11
38.92 -202.21 1726.17
39.00 -202.19 1726.09
39.11 -202.33 1725.88
26.51 -202.74 1725.84
26.80 -202.76 1726.00
26.77 -202.74 1725.99
38.88 -202.58 1726.05
26.49 -203.14 1725.72
26.99 -202.97 1726.04
26.67 -203.01 1725.86
26.87 -203.06 1725.95
38.89 -202.68 1725.97
38.76 -202.80 1726.07
26.97 -203.18 1725.97
27.02 -203.45 1725.94
26.80 -203.37 1725.83
27.16 -203.38 1726.03
27.20 -203.32 1726.06
38.50 -203.57 1725.85
38.45 -203.50 1725.97
38.52 -203.47 1725.90
38.65 -203.36 1725.84
38.43 -203.44 1726.04
38.77 -203.16 1725.81
38.71 -202.99 1726.00
38.93 -202.88 1725.78
27.10 -203.67 1725.92
27.10 -203.59 1725.95
26.93 -204.04 1725.71
27.21 -203.95 1725.89
27.32 -203.89 1725.97
27.51 -204.07 1726.00
27.35 -204.10 1725.91
38.34 -203.75 1725.91
38.14 -203.89 1726.00
38.21 -203.91 1725.92
38.03 -204.08 1725.98
37.95 -204.21 1725.94
27.41 -204.44 1725.83
27.33 -204.39 1725.80
27.52 -204.16 1725.97
37.41 -204.56 1726.11
37.72 -204.31 1726.07
37.54 -204.62 1725.95
37.58 -204.45 1726.07
37.26 -204.52 1726.28
37.77 -204.40 1725.94
37.81 -204.46 1725.84
37.88 -204.27 1725.96
28.04 -204.83 1725.97
28.14 -205.00 1725.94
27.84 -204.74 1725.92
37.20 -204.60 1726.27
37.06 -205.00 1726.04
37.35 -204.64 1726.10
37.21 -204.61 1726.25
37.19 -205.01 1725.91
37.33 -204.92 1725.87
37.29 -205.00 1725.82
36.72 -205.28 1726.05
36.64 -205.37 1726.02
36.77 -205.35 1725.94
36.81 -205.35 1725.90
36.87 -205.39 1725.80
36.78 -205.50 1725.76
29.51 -205.73 1726.23
29.11 -205.65 1726.07
29.08 -205.68 1726.04
29.54 -205.91 1726.12
29.66 -205.97 1726.15
29.17 -205.52 1726.20
29.77 -206.06 1726.14
29.54 -205.53 1726.39
29.52 -205.70 1726.26
29.39 -205.47 1726.35
35.98 -205.74 1726.08
36.13 -205.67 1726.06
35.87 -205.63 1726.28
36.32 -205.54 1726.09
36.26 -205.67 1725.98
36.31 -205.74 1725.85
35.41 -206.29 1725.81
35.43 -206.27 1725.84
35.41 -206.04 1726.10
35.63 -206.06 1725.96
35.69 -206.00 1725.99
35.64 -205.95 1726.08
35.41 -205.94 1726.21
35.82 -205.89 1726.03
36.01 -205.89 1725.89
35.86 -205.85 1726.04
30.30 -206.64 1725.98
34.24 -206.66 1725.88
34.34 -206.73 1725.76
34.62 -206.52 1725.86
34.65 -206.48 1725.89
34.67 -206.20 1726.21
34.47 -206.40 1726.06
34.79 -206.17 1726.19
34.77 -206.42 1725.92
34.77 -206.54 1725.78
34.84 -206.46 1725.84
35.22 -206.27 1725.96
30.51 -206.92 1725.89
30.53 -206.78 1725.99
30.65 -206.94 1725.95
33.73 -206.94 1725.86
33.75 -206.96 1725.83
33.79 -206.73 1726.04
34.00 -206.79 1725.88
34.16 -206.67 1725.92
34.06 -206.75 1725.89
30.93 -207.18 1725.94
30.77 -207.24 1725.83
31.12 -207.20 1726.00
31.09 -207.13 1726.04
31.03 -207.22 1725.96
30.98 -207.19 1725.96
31.02 -207.28 1725.92
31.50 -207.18 1726.14
31.37 -207.06 1726.19
32.88 -206.78 1726.25
33.30 -207.02 1725.95
32.76 -207.00 1726.08
32.98 -207.06 1725.98
32.72 -207.17 1725.94
31.19 -207.73 1725.67
31.21 -207.74 1725.67
31.45 -207.34 1726.03
31.44 -207.50 1725.89
31.72 -207.34 1726.01
79.41 -216.24 1726.18
79.47 -216.33 1726.10
79.59 -216.46 1725.95
79.57 -216.49 1725.93
79.70 -216.40 1725.96
79.75 -216.52 1725.85
79.97 -216.44 1725.88
80.21 -216.35 1726.00
80.40 -216.49 1725.81
80.42 -216.51 1725.77
79.27 -216.75 1725.87
79.15 -216.72 1726.00
79.27 -216.75 1725.86
79.31 -216.77 1725.82
79.58 -216.58 1725.86
80.66 -216.53 1725.89
80.76 -216.55 1725.93
80.95 -216.67 1725.97
81.00 -216.73 1725.82
81.20 -216.93 1726.11
78.91 -217.10 1725.94
78.83 -217.23 1726.01
78.91 -217.11 1725.93
79.15 -217.13 1725.66
79.13 -217.17 1725.64
79.02 -217.01 1725.87
81.25 -217.05 1726.06
81.29 -217.17 1725.97
78.68 -217.61 1726.07
78.78 -217.39 1725.96
78.94 -217.40 1725.65
81.33 -217.29 1726.06
81.35 -217.51 1725.89
78.66 -217.89 1725.99
81.31 -217.75 1726.01
81.33 -217.79 1725.82
78.64 -218.10 1725.92
78.66 -218.15 1725.98
81.28 -217.95 1725.96
81.27 -218.23 1725.78
78.68 -218.38 1725.85
78.75 -218.48 1725.95
81.24 -218.29 1725.81
81.08 -218.53 1725.91
81.11 -218.52 1725.88
78.74 -218.73 1725.77
78.82 -218.67 1725.99
79.20 -219.14 1726.04
79.14 -218.83 1726.25
79.13 -218.92 1726.15
80.92 -218.96 1725.68
80.85 -219.01 1725.70
80.65 -219.00 1725.94
80.93 -218.95 1725.68
80.99 -218.69 1725.89
81.00 -218.78 1725.79
79.07 -219.20 1725.88
78.90 -218.77 1726.01
78.89 -218.96 1725.84
79.16 -219.34 1725.83
79.28 -219.33 1725.90
79.24 -219.23 1725.98
68.69 -222.20 1725.87
68.87 -221.95 1726.03
69.00 -221.87 1726.03
69.22 -221.95 1725.84
69.33 -221.91 1725.85
69.33 -221.74 1726.07
69.58 -221.89 1725.85
69.67 -221.72 1726.05
69.66 -221.80 1725.95
69.96 -221.80 1726.01
70.06 -221.86 1725.96
70.22 -221.96 1725.90
70.40 -222.02 1725.88
68.54 -222.32 1725.94
68.50 -222.34 1726.01
70.93 -222.18 1725.89
71.12 -222.30 1725.88
71.25 -222.37 1725.90
71.24 -222.23 1726.05
71.24 -222.17 1726.12
71.37 -222.27 1726.11
68.42 -222.71 1725.90
68.42 -222.57 1726.01
71.42 -222.52 1726.02
71.47 -222.66 1725.84
68.42 -223.10 1726.04
68.40 -223.00 1726.05
71.59 -223.10 1725.86
71.56 -223.25 1726.01
71.59 -222.94 1725.82
68.44 -223.43 1725.84
68.45 -223.29 1726.00
71.63 -223.13 1725.79
68.48 -223.54 1726.00
68.49 -223.68 1725.97
71.67 -223.53 1725.96
71.86 -223.71 1725.74
68.49 -223.76 1725.93
68.49 -223.91 1725.91
71.77 -223.85 1725.98
71.73 -223.73 1725.96
72.12 -224.60 1726.03
72.05 -224.28 1725.91
72.05 -224.16 1725.80
68.69 -224.80 1726.03
68.59 -224.90 1725.91
72.22 -224.79 1726.04
68.79 -224.95 1726.07
68.72 -224.95 1726.01
68.64 -225.05 1725.90
72.27 -224.87 1726.02
72.15 -225.01 1726.01
72.12 -224.98 1726.05
68.85 -225.51 1725.83
69.00 -225.57 1725.87
68.82 -225.67 1725.72
68.90 -225.60 1725.80
68.81 -225.35 1725.90
68.79 -225.27 1725.93
68.47 -225.35 1725.64
71.89 -225.53 1725.98
71.91 -225.52 1725.97
71.73 -225.71 1725.98
72.04 -225.36 1725.95
72.05 -225.23 1725.98
72.03 -225.87 1725.84
71.87 -225.79 1725.91
70.00 -225.97 1725.99
69.94 -226.08 1725.90
69.64 -225.88 1725.94
69.87 -225.86 1726.03
69.57 -225.81 1725.96
69.99 -226.19 1725.83
70.08 -226.18 1725.86
70.67 -225.95 1726.05
70.19 -226.01 1725.99
70.49 -226.18 1725.89
70.56 -226.10 1725.95
71.43 -226.30 1725.83
71.43 -225.95 1725.97
71.45 -226.04 1725.93
71.21 -225.90 1726.02
71.37 -226.02 1725.95
70.96 -226.15 1725.95
70.86 -226.42 1725.79
70.95 -226.31 1725.86
70.83 -226.25 1725.89
71.91 -226.04 1725.85
71.95 -226.03 1725.84
70.43 -226.37 1725.78
70.83 -225.98 1726.04
70.64 -226.48 1725.75
71.63 -226.09 1725.89
71.75 -226.24 1725.82
71.57 -226.09 1725.90
61.20 -159.45 1726.36
61.23 -159.43 1726.37
61.38 -159.48 1726.21
61.51 -159.45 1726.21
61.61 -159.41 1726.22
61.81 -159.39 1726.15
61.93 -159.31 1726.30
62.17 -159.35 1726.22
62.32 -159.37 1726.21
62.36 -159.39 1726.19
62.65 -159.52 1726.06
60.98 -159.55 1726.40
61.00 -159.56 1726.37
61.08 -159.61 1726.25
61.06 -159.60 1726.29
62.79 -159.57 1726.25
62.82 -159.59 1726.17
63.01 -159.73 1726.27
63.02 -159.69 1726.06
63.18 -159.86 1726.28
60.57 -159.99 1726.32
60.58 -160.13 1726.22
60.65 -160.06 1726.20
60.70 -160.02 1726.18
63.34 -159.99 1726.19
63.39 -160.01 1726.10
63.56 -160.24 1726.22
60.44 -160.48 1726.29
60.51 -160.46 1726.17
63.62 -160.42 1726.23
60.70 -160.95 1726.22
60.65 -160.95 1726.35
60.54 -160.72 1726.24
63.64 -160.91 1726.35
60.88 -161.22 1726.38
60.78 -161.12 1726.37
60.76 -161.07 1726.32
60.75 -161.07 1726.35
63.62 -161.14 1726.32
63.80 -161.17 1726.07
61.25 -161.46 1726.10
61.19 -161.47 1726.29
63.82 -161.32 1726.01
63.78 -161.38 1726.05
63.58 -161.60 1726.19
63.43 -161.68 1726.31
61.61 -161.78 1726.17
61.69 -161.83 1726.02
61.41 -161.63 1726.23
61.88 -161.96 1726.31
61.74 -161.88 1726.41
61.67 -161.83 1726.24
62.02 -162.01 1726.38
63.36 -161.74 1726.34
63.36 -161.83 1726.27
63.55 -161.76 1726.11
63.46 -161.76 1726.22
62.04 -162.06 1726.13
62.69 -162.09 1726.36
62.46 -162.22 1726.06
62.33 -162.19 1726.09
62.95 -162.01 1726.36
62.82 -162.20 1726.10
62.74 -162.14 1726.24
28.84 -188.45 1725.99
29.36 -188.45 1726.19
29.45 -188.46 1726.23
29.35 -188.54 1726.30
29.68 -188.53 1726.40
29.77 -188.43 1726.31
29.83 -188.36 1726.22
30.12 -188.44 1726.37
29.93 -188.34 1726.21
30.14 -188.36 1726.26
30.35 -188.44 1726.39
30.29 -188.32 1726.19
30.51 -188.30 1726.15
31.00 -188.35 1726.28
30.91 -188.38 1726.32
30.74 -188.37 1726.29
31.03 -188.30 1726.21
31.34 -188.27 1726.20
31.44 -188.34 1726.29
31.45 -188.40 1726.37
31.63 -188.38 1726.34
31.98 -188.15 1726.00
31.78 -188.20 1726.08
31.64 -188.18 1726.07
32.33 -188.26 1725.92
32.01 -188.29 1726.14
32.42 -188.48 1726.18
32.02 -188.36 1726.22
32.31 -188.30 1725.98
32.67 -188.52 1726.08
32.63 -188.53 1726.13
28.96 -188.75 1726.30
28.71 -188.67 1726.10
28.50 -188.70 1726.02
28.98 -188.62 1726.19
29.15 -188.52 1726.17
32.69 -188.54 1726.10
32.79 -188.59 1726.11
32.99 -188.80 1726.28
33.09 -188.86 1726.31
33.19 -188.78 1726.12
28.51 -188.88 1726.16
28.33 -189.14 1726.23
28.53 -189.00 1726.26
28.48 -189.17 1726.36
28.22 -189.23 1726.23
33.47 -189.04 1726.33
33.37 -188.89 1726.16
33.57 -188.96 1726.14
33.47 -188.93 1726.16
34.01 -189.16 1726.14
33.79 -189.11 1726.22
27.61 -189.73 1726.28
27.60 -189.62 1726.16
28.11 -189.42 1726.32
28.06 -189.34 1726.22
28.30 -189.38 1726.42
28.28 -189.37 1726.40
34.10 -189.37 1726.39
34.14 -189.37 1726.37
34.35 -189.36 1726.19
34.46 -189.34 1726.09
27.23 -189.91 1726.18
27.49 -189.82 1726.28
27.43 -189.95 1726.42
34.65 -189.65 1726.36
34.81 -189.75 1726.37
34.94 -189.82 1726.36
34.98 -189.65 1726.13
35.00 -189.76 1726.25
35.39 -189.89 1726.17
35.23 -189.84 1726.21
26.99 -190.18 1726.32
26.94 -190.19 1726.26
35.40 -190.13 1726.42
35.36 -189.91 1726.21
35.18 -189.99 1726.39
35.55 -190.08 1726.29
35.60 -190.08 1726.27
26.47 -190.74 1726.35
26.48 -190.55 1726.12
26.60 -190.47 1726.22
35.93 -190.08 1726.12
36.22 -190.30 1726.21
36.12 -190.40 1726.34
36.44 -190.74 1726.47
36.33 -190.57 1726.38
36.59 -190.50 1726.18
36.60 -190.66 1726.31
36.76 -190.72 1726.27
36.64 -190.67 1726.30
25.97 -191.21 1726.04
26.02 -191.38 1726.25
26.05 -191.21 1726.16
26.24 -191.16 1726.40
26.16 -191.00 1726.14
26.15 -191.00 1726.14
37.29 -190.90 1726.08
37.14 -190.94 1726.23
37.37 -190.90 1726.02
37.40 -190.87 1725.97
37.42 -191.17 1726.23
37.62 -191.49 1726.27
37.68 -191.30 1726.11
25.78 -191.65 1726.11
25.85 -191.77 1726.29
25.86 -191.65 1726.22
26.06 -191.40 1726.33
25.64 -192.15 1726.23
25.63 -192.21 1726.25
25.67 -192.01 1726.20
25.88 -191.92 1726.43
38.13 -192.44 1726.39
38.32 -192.32 1726.23
38.11 -192.26 1726.33
25.39 -192.58 1726.10
25.64 -192.42 1726.35
25.58 -192.57 1726.33
38.42 -192.69 1726.34
38.45 -192.57 1726.26
25.44 -193.13 1726.29
25.48 -192.93 1726.30
25.50 -192.80 1726.30
38.61 -192.57 1726.16
38.48 -192.86 1726.37
38.68 -192.79 1726.21
38.62 -192.96 1726.32
25.43 -193.42 1726.32
25.44 -193.31 1726.31
38.83 -193.16 1726.24
38.74 -193.29 1726.36
38.92 -193.22 1726.20
38.94 -193.38 1726.24
25.20 -193.71 1726.11
25.23 -193.60 1726.12
38.95 -193.54 1726.28
39.08 -193.63 1726.21
39.25 -193.74 1726.11
25.22 -193.83 1726.15
25.33 -193.82 1726.25
25.09 -194.12 1726.06
25.43 -194.32 1726.34
25.43 -194.17 1726.34
39.23 -193.89 1726.18
39.02 -193.81 1726.32
39.28 -194.02 1726.19
25.17 -194.45 1726.12
25.23 -194.32 1726.17
39.39 -194.17 1726.15
39.42 -194.23 1726.14
39.33 -194.44 1726.30
25.32 -194.50 1726.25
39.72 -194.76 1726.08
39.62 -194.72 1726.15
39.43 -194.63 1726.29
39.46 -194.57 1726.24
25.41 -194.61 1726.34
25.18 -195.01 1726.14
25.41 -195.02 1726.33
25.32 -194.86 1726.26
25.50 -194.92 1726.41
25.34 -195.01 1726.27
39.63 -194.88 1726.20
39.48 -194.85 1726.33
39.75 -195.05 1726.15
25.25 -195.48 1726.21
25.39 -195.33 1726.32
25.20 -195.47 1726.17
39.81 -195.32 1726.18
39.69 -195.25 1726.27
39.66 -195.56 1726.36
39.64 -195.31 1726.33
39.68 -195.64 1726.36
25.33 -196.15 1726.31
25.21 -196.02 1726.21
39.93 -195.95 1726.16
40.00 -195.93 1726.08
40.01 -195.82 1726.07
39.93 -195.72 1726.13
25.10 -196.35 1726.14
25.29 -196.66 1726.32
25.29 -196.63 1726.31
39.94 -196.42 1726.20
39.60 -196.87 1726.56
39.78 -196.72 1726.37
39.93 -196.65 1726.21
39.62 -196.65 1726.53
39.71 -196.95 1726.45
39.82 -196.92 1726.33
39.80 -196.70 1726.35
39.88 -197.31 1726.29
40.16 -196.96 1726.00
40.06 -196.76 1726.09
40.09 -196.72 1726.05
25.33 -197.11 1726.36
25.27 -197.02 1726.30
25.21 -196.80 1726.24
25.28 -196.81 1726.30
25.00 -197.24 1726.07
25.25 -197.38 1726.30
25.20 -197.31 1726.25
39.97 -197.54 1726.19
40.00 -197.52 1726.16
40.12 -197.36 1726.04
39.89 -197.40 1726.28
39.81 -197.94 1726.35
39.92 -198.03 1726.24
39.89 -198.04 1726.27
40.00 -197.89 1726.16
39.78 -198.14 1726.37
25.81 -198.42 1726.52
25.55 -198.08 1726.38
25.55 -198.09 1726.39
25.64 -198.28 1726.42
25.38 -198.05 1726.26
25.61 -198.09 1726.43
40.06 -198.38 1726.10
39.88 -198.36 1726.27
25.50 -198.37 1726.25
25.60 -198.48 1726.30
25.41 -198.55 1726.08
25.33 -198.35 1726.09
25.51 -198.36 1726.26
25.54 -198.24 1726.35
40.03 -198.78 1726.10
40.03 -198.66 1726.11
25.65 -199.27 1726.27
25.71 -199.30 1726.30
25.74 -199.49 1726.20
25.53 -199.35 1726.00
25.52 -199.12 1726.12
39.83 -199.32 1726.22
39.77 -199.43 1726.27
39.74 -198.97 1726.36
39.71 -199.23 1726.36
39.74 -198.93 1726.37
39.64 -199.14 1726.44
39.75 -198.76 1726.38
25.89 -199.57 1726.31
25.82 -199.53 1726.26
25.66 -199.63 1726.07
39.71 -199.56 1726.30
39.88 -199.61 1726.12
25.94 -199.85 1726.28
25.67 -199.80 1726.03
25.78 -200.12 1726.05
25.63 -199.61 1726.04
39.86 -199.70 1726.12
39.76 -199.85 1726.17
39.71 -199.94 1726.21
39.61 -200.16 1726.25
39.56 -200.37 1726.24
39.73 -200.28 1726.09
26.12 -200.59 1726.12
26.14 -200.57 1726.20
25.92 -200.40 1726.08
25.87 -200.33 1726.07
39.45 -200.73 1726.23
39.55 -200.65 1726.16
39.36 -200.48 1726.41
39.56 -200.46 1726.21
26.22 -200.91 1726.10
26.34 -200.85 1726.25
26.40 -200.78 1726.32
26.09 -200.71 1725.88
39.38 -200.85 1726.26
39.47 -200.92 1726.15
26.11 -200.87 1725.88
26.22 -201.24 1725.93
39.38 -201.14 1726.16
26.34 -201.89 1725.94
26.31 -201.91 1725.91
26.28 -201.76 1725.91
38.89 -201.57 1726.49
39.11 -201.53 1726.27
38.92 -201.55 1726.46
39.28 -201.40 1726.15
39.19 -201.42 1726.24
26.33 -201.94 1725.92
26.51 -201.90 1726.09
38.71 -201.95 1726.50
38.69 -202.21 1726.41
38.65 -202.09 1726.50
38.85 -201.97 1726.36
39.08 -201.80 1726.18
39.05 -201.74 1726.23
38.93 -201.90 1726.29
26.68 -202.32 1726.10
26.68 -202.31 1726.10
26.91 -202.43 1726.19
38.79 -202.53 1726.17
38.80 -202.32 1726.25
38.70 -202.26 1726.38
38.52 -202.63 1726.41
26.66 -202.61 1725.96
27.03 -202.57 1726.20
27.20 -202.64 1726.28
27.15 -202.74 1726.21
27.33 -202.77 1726.31
27.01 -202.78 1726.10
27.36 -202.97 1726.25
27.41 -203.04 1726.25
27.35 -203.02 1726.23
27.60 -203.00 1726.39
28.02 -203.01 1726.71
27.69 -202.83 1726.53
38.39 -202.94 1726.37
38.59 -203.05 1726.12
38.22 -202.94 1726.53
38.14 -203.05 1726.55
38.69 -202.80 1726.15
38.63 -202.79 1726.21
27.55 -203.13 1726.31
28.16 -203.03 1726.81
28.11 -203.22 1726.70
28.07 -203.21 1726.67
27.85 -203.12 1726.53
27.72 -203.27 1726.38
27.51 -203.30 1726.23
27.35 -203.50 1726.12
27.59 -203.44 1726.27
27.20 -203.45 1726.03
38.35 -203.37 1726.18
38.31 -203.23 1726.30
27.39 -203.63 1726.11
27.36 -203.81 1726.03
27.72 -203.50 1726.35
27.34 -203.58 1726.09
27.93 -203.56 1726.44
27.87 -203.61 1726.39
28.04 -203.55 1726.51
38.16 -203.57 1726.23
38.20 -203.51 1726.24
27.59 -204.02 1726.06
27.58 -203.99 1726.06
28.00 -203.85 1726.33
27.96 -203.96 1726.27
27.75 -204.33 1726.04
28.04 -204.12 1726.27
27.68 -204.34 1725.99
37.83 -204.03 1726.21
37.87 -203.85 1726.30
37.96 -203.94 1726.15
37.94 -204.00 1726.14
38.09 -203.71 1726.21
27.95 -204.46 1726.10
27.89 -204.47 1726.06
28.07 -204.18 1726.26
37.43 -204.36 1726.28
37.66 -204.12 1726.27
37.61 -204.23 1726.23
28.17 -204.81 1726.05
28.26 -204.85 1726.07
28.18 -204.70 1726.11
28.31 -204.93 1726.06
27.86 -204.61 1726.00
28.48 -204.80 1726.24
28.55 -204.77 1726.31
36.86 -204.73 1726.44
37.10 -204.70 1726.26
36.93 -204.79 1726.33
28.74 -205.40 1726.03
28.88 -205.57 1726.00
28.57 -205.23 1726.03
28.87 -205.31 1726.17
28.41 -204.97 1726.10
28.66 -205.03 1726.22
29.19 -205.34 1726.33
28.97 -205.54 1726.07
29.02 -205.70 1725.99
36.65 -205.08 1726.30
36.78 -205.02 1726.26
36.39 -205.23 1726.35
36.69 -205.14 1726.21
36.68 -205.16 1726.20
36.67 -205.24 1726.13
29.89 -205.61 1726.52
36.20 -205.24 1726.46
36.19 -205.24 1726.46
36.00 -205.44 1726.39
29.86 -206.08 1726.17
29.84 -205.95 1726.25
29.76 -205.77 1726.34
30.03 -206.11 1726.24
30.12 -206.09 1726.30
35.11 -206.03 1726.24
34.95 -206.10 1726.21
30.24 -206.46 1726.09
30.02 -206.25 1726.13
30.53 -206.22 1726.43
30.36 -206.38 1726.21
30.28 -206.31 1726.23
30.61 -206.53 1726.23
33.55 -206.43 1726.37
33.69 -206.56 1726.21
33.83 -206.32 1726.36
33.97 -206.46 1726.20
33.89 -206.49 1726.21
34.28 -206.33 1726.20
34.36 -206.24 1726.26
34.33 -206.41 1726.10
34.38 -206.45 1726.04
30.43 -206.60 1726.08
30.89 -206.64 1726.28
30.65 -206.56 1726.23
30.74 -206.64 1726.21
30.86 -206.97 1726.04
31.32 -206.56 1726.50
31.29 -206.56 1726.49
30.99 -206.89 1726.16
31.01 -206.84 1726.20
31.40 -206.66 1726.46
32.39 -206.75 1726.35
32.73 -206.62 1726.41
32.55 -206.89 1726.21
32.56 -207.12 1726.01
32.60 -206.96 1726.15
33.31 -206.85 1726.09
33.13 -206.62 1726.32
33.16 -206.86 1726.12
33.39 -206.51 1726.36
33.64 -206.69 1726.12
33.36 -206.97 1725.98
33.49 -206.60 1726.25
31.50 -206.92 1726.31
31.73 -207.16 1726.15
79.23 -216.13 1726.34
79.46 -215.96 1726.39
79.66 -216.18 1726.16
79.51 -216.12 1726.25
79.76 -216.01 1726.32
79.90 -216.09 1726.25
80.09 -216.11 1726.26
80.24 -216.14 1726.25
80.35 -216.20 1726.25
79.23 -216.38 1726.17
79.29 -216.19 1726.26
80.59 -216.36 1726.19
80.71 -216.45 1726.19
80.74 -216.47 1726.22
78.92 -216.77 1726.15
78.92 -216.53 1726.30
78.72 -216.88 1726.37
79.00 -216.78 1726.08
79.17 -216.46 1726.15
79.03 -216.70 1726.11
81.00 -216.68 1726.17
80.73 -216.49 1726.08
80.90 -216.60 1726.15
81.13 -216.85 1726.17
78.68 -217.31 1726.28
78.90 -216.90 1726.11
78.73 -217.10 1726.26
81.24 -217.03 1726.18
81.21 -217.14 1726.42
78.69 -217.54 1726.34
81.28 -217.41 1726.28
81.32 -217.34 1726.15
78.69 -217.90 1726.26
78.69 -217.83 1726.33
81.17 -217.86 1726.37
81.28 -217.79 1726.12
78.74 -218.20 1726.18
78.74 -217.97 1726.35
81.20 -218.06 1726.09
81.10 -218.12 1726.28
81.12 -218.19 1726.16
78.80 -218.43 1726.14
78.89 -218.54 1726.20
78.90 -218.55 1726.19
78.90 -218.45 1726.28
80.89 -218.42 1726.35
80.93 -218.38 1726.34
80.89 -218.54 1726.21
79.26 -218.77 1726.41
79.23 -218.91 1726.27
80.64 -218.55 1726.44
80.79 -218.49 1726.40
80.61 -218.91 1726.08
80.56 -218.65 1726.40
80.62 -218.68 1726.32
80.67 -218.81 1726.14
79.50 -219.30 1726.01
79.61 -219.17 1726.22
79.56 -219.37 1725.96
79.82 -219.17 1726.21
79.99 -219.13 1726.24
79.72 -219.38 1725.98
79.83 -219.41 1725.95
80.13 -218.87 1726.44
80.44 -219.08 1726.04
80.43 -218.63 1726.53
80.32 -218.79 1726.42
80.17 -219.13 1726.15
80.22 -219.25 1725.99
80.03 -218.98 1726.38
69.21 -221.36 1726.38
69.54 -221.29 1726.39
69.47 -221.37 1726.34
69.76 -221.31 1726.39
69.80 -221.51 1726.26
68.98 -221.63 1726.27
68.99 -221.75 1726.17
69.05 -221.70 1726.17
69.17 -221.64 1726.17
69.18 -221.46 1726.31
69.72 -221.66 1726.12
69.86 -221.67 1726.13
69.80 -221.57 1726.21
70.27 -221.67 1726.21
70.27 -221.58 1726.29
70.52 -221.50 1726.48
70.54 -221.54 1726.44
70.94 -221.69 1726.42
70.69 -221.67 1726.35
68.69 -221.85 1726.28
68.63 -221.94 1726.26
68.72 -221.97 1726.12
69.06 -221.79 1726.10
70.19 -221.84 1726.03
70.54 -221.83 1726.13
70.53 -221.90 1726.05
70.73 -222.05 1725.95
70.93 -221.78 1726.32
70.88 -221.88 1726.20
70.75 -221.80 1726.24
71.04 -221.88 1726.26
71.35 -221.97 1726.37
71.17 -221.86 1726.37
68.34 -222.29 1726.39
68.48 -222.20 1726.20
68.52 -222.27 1726.10
71.46 -222.16 1726.44
68.34 -222.72 1726.34
68.38 -222.65 1726.16
71.47 -222.50 1726.23
71.48 -222.72 1726.19
68.41 -223.07 1726.17
68.35 -222.79 1726.30
71.41 -222.93 1726.35
71.52 -223.09 1726.09
71.43 -223.03 1726.25
68.51 -223.50 1726.21
68.47 -223.33 1726.25
68.53 -223.58 1726.26
68.61 -223.86 1726.29
71.50 -223.35 1726.18
71.44 -223.36 1726.30
71.42 -223.20 1726.31
71.54 -223.49 1726.14
71.52 -223.46 1726.16
68.58 -223.90 1726.16
71.75 -224.08 1726.15
71.43 -223.76 1726.37
71.50 -224.05 1726.35
71.67 -223.78 1726.08
71.74 -223.95 1726.09
68.59 -224.49 1726.00
68.73 -224.35 1726.25
68.54 -224.41 1725.95
68.62 -224.17 1726.14
68.68 -224.11 1726.30
71.84 -224.20 1726.08
71.73 -224.34 1726.22
71.40 -224.33 1726.45
71.95 -224.52 1726.13
71.77 -224.43 1726.22
68.65 -224.59 1726.07
68.75 -224.64 1726.17
68.98 -224.73 1726.34
69.01 -224.74 1726.36
71.57 -224.63 1726.35
71.56 -224.56 1726.35
71.83 -224.57 1726.22
72.02 -224.74 1726.13
72.07 -224.75 1726.11
69.00 -224.91 1726.25
68.86 -225.14 1726.04
69.02 -225.05 1726.21
71.57 -224.97 1726.28
71.68 -225.06 1726.21
71.85 -224.96 1726.18
72.02 -224.92 1726.13
69.26 -225.50 1726.06
68.91 -225.22 1726.05
69.15 -225.20 1726.20
69.09 -225.26 1726.12
69.21 -225.27 1726.19
69.67 -225.31 1726.34
69.50 -225.08 1726.44
69.76 -225.23 1726.43
69.67 -225.37 1726.31
69.48 -225.35 1726.25
71.43 -225.49 1726.16
71.49 -225.30 1726.20
71.62 -225.28 1726.16
71.50 -225.63 1726.09
69.45 -225.70 1726.00
69.71 -225.38 1726.31
69.75 -225.67 1726.12
69.51 -225.74 1726.00
69.88 -225.40 1726.35
69.80 -225.80 1726.04
69.96 -225.36 1726.39
70.13 -225.50 1726.30
70.02 -225.37 1726.38
70.28 -225.41 1726.35
70.44 -225.26 1726.44
71.49 -225.70 1726.06
71.33 -225.68 1726.10
70.98 -225.74 1726.13
71.21 -225.45 1726.22
71.04 -225.67 1726.15
71.06 -225.89 1726.05
70.40 -225.69 1726.19
70.52 -225.59 1726.25
70.67 -225.86 1726.10
70.53 -225.79 1726.14
70.24 -225.88 1726.07
70.28 -225.79 1726.13
70.91 -225.75 1726.14
70.75 -225.73 1726.18
70.92 -225.45 1726.27
70.77 -225.80 1726.14
70.98 -225.45 1726.26
61.54 -159.30 1726.41
61.79 -159.23 1726.70
61.92 -159.26 1726.67
62.00 -159.27 1726.65
60.99 -159.42 1726.58
60.83 -159.47 1726.63
61.19 -159.35 1726.59
61.40 -159.30 1726.47
61.52 -159.27 1726.54
62.46 -159.40 1726.59
62.13 -159.29 1726.67
62.58 -159.44 1726.43
62.58 -159.45 1726.45
60.37 -159.86 1726.61
60.55 -159.73 1726.58
60.78 -159.67 1726.43
60.89 -159.60 1726.42
62.59 -159.51 1726.69
62.74 -159.57 1726.45
63.06 -159.84 1726.55
62.91 -159.75 1726.63
60.30 -160.03 1726.58
60.28 -160.10 1726.58
60.40 -160.04 1726.47
60.47 -160.08 1726.38
63.16 -160.06 1726.72
63.18 -159.90 1726.42
63.29 -160.04 1726.41
63.26 -160.07 1726.53
60.39 -160.55 1726.43
60.35 -160.60 1726.51
60.28 -160.51 1726.56
63.40 -160.37 1726.62
63.44 -160.37 1726.53
63.46 -160.42 1726.53
60.33 -160.77 1726.70
60.42 -160.78 1726.56
60.49 -160.90 1726.60
63.59 -160.73 1726.41
63.51 -160.62 1726.56
63.60 -160.78 1726.40
60.88 -161.33 1726.60
61.03 -161.38 1726.43
60.60 -161.06 1726.63
63.58 -161.04 1726.43
61.01 -161.48 1726.72
61.09 -161.50 1726.59
63.31 -161.51 1726.53
63.30 -161.63 1726.48
61.46 -161.76 1726.59
61.58 -161.80 1726.45
61.40 -161.67 1726.44
61.38 -161.65 1726.43
61.74 -161.91 1726.70
61.70 -161.89 1726.60
61.85 -161.95 1726.89
62.11 -161.98 1726.74
62.18 -162.05 1726.44
61.90 -161.96 1726.76
62.71 -161.88 1726.69
62.50 -162.02 1726.54
62.50 -162.02 1726.54
62.82 -162.00 1726.45
62.94 -161.86 1726.57
62.93 -161.74 1726.69
63.22 -161.72 1726.49
63.12 -161.82 1726.47
29.83 -188.52 1726.45
30.11 -188.62 1726.68
30.07 -188.62 1726.67
30.06 -188.53 1726.52
30.27 -188.58 1726.63
30.40 -188.52 1726.52
30.58 -188.54 1726.55
30.66 -188.55 1726.58
30.77 -188.57 1726.60
30.98 -188.59 1726.63
31.08 -188.47 1726.46
31.47 -188.52 1726.50
31.80 -188.50 1726.45
31.80 -188.57 1726.54
29.26 -188.78 1726.52
29.53 -188.70 1726.57
29.34 -188.69 1726.44
29.58 -188.63 1726.51
31.27 -188.50 1726.49
31.31 -188.51 1726.50
32.24 -188.88 1726.80
31.95 -188.76 1726.73
32.31 -188.82 1726.69
32.18 -188.72 1726.60
31.83 -188.59 1726.55
32.22 -188.57 1726.39
32.14 -188.47 1726.30
32.69 -188.91 1726.62
32.58 -188.90 1726.66
32.53 -188.77 1726.51
32.69 -188.79 1726.45
28.61 -189.24 1726.56
28.58 -189.31 1726.60
28.81 -189.15 1726.63
28.77 -188.93 1726.36
28.90 -188.94 1726.47
28.95 -189.07 1726.66
29.16 -188.84 1726.52
33.04 -188.97 1726.51
33.01 -188.87 1726.38
32.89 -188.80 1726.35
33.09 -189.15 1726.77
33.10 -189.15 1726.76
33.30 -189.07 1726.49
33.51 -189.22 1726.59
28.29 -189.46 1726.49
28.41 -189.39 1726.52
33.72 -189.40 1726.75
33.95 -189.50 1726.70
33.78 -189.42 1726.74
34.01 -189.36 1726.44
34.14 -189.50 1726.54
34.27 -189.52 1726.47
27.76 -189.84 1726.55
27.63 -189.76 1726.32
27.78 -189.67 1726.33
27.92 -189.74 1726.55
28.09 -189.68 1726.62
27.97 -189.76 1726.64
34.62 -189.76 1726.52
34.85 -189.88 1726.50
34.83 -189.90 1726.54
27.10 -190.32 1726.64
27.02 -190.21 1726.40
27.30 -190.10 1726.51
27.21 -190.26 1726.67
27.53 -190.03 1726.66
27.71 -189.94 1726.68
35.07 -190.05 1726.53
34.88 -189.95 1726.57
35.56 -190.29 1726.50
35.26 -190.12 1726.49
35.21 -190.25 1726.67
26.60 -190.73 1726.53
26.80 -190.56 1726.61
26.93 -190.48 1726.65
35.45 -190.51 1726.79
35.41 -190.42 1726.73
35.70 -190.60 1726.73
35.68 -190.39 1726.53
35.82 -190.40 1726.47
36.08 -190.46 1726.42
35.92 -190.37 1726.41
35.94 -190.32 1726.35
35.74 -190.29 1726.41
26.49 -190.94 1726.59
26.52 -190.98 1726.69
36.10 -190.57 1726.50
36.06 -190.63 1726.58
26.36 -191.15 1726.59
26.45 -190.85 1726.44
26.38 -191.17 1726.65
36.82 -191.20 1726.59
36.83 -190.96 1726.42
36.86 -190.99 1726.43
36.68 -190.94 1726.50
37.07 -191.20 1726.46
37.13 -191.12 1726.38
26.20 -191.37 1726.53
26.22 -191.42 1726.62
37.29 -191.37 1726.44
37.55 -191.48 1726.31
25.95 -191.82 1726.47
26.09 -191.65 1726.60
26.02 -191.85 1726.64
37.20 -191.61 1726.62
37.27 -191.52 1726.52
37.39 -191.89 1726.65
37.27 -191.59 1726.56
37.02 -191.44 1726.64
37.83 -192.09 1726.44
37.76 -191.83 1726.36
37.90 -191.97 1726.33
25.83 -192.34 1726.59
25.77 -192.19 1726.42
25.91 -191.96 1726.53
25.95 -192.08 1726.69
37.78 -192.16 1726.51
37.67 -192.19 1726.59
37.84 -192.28 1726.52
25.63 -192.51 1726.37
25.74 -192.35 1726.47
25.68 -192.85 1726.53
25.72 -193.29 1726.64
25.69 -192.87 1726.55
37.83 -192.50 1726.63
37.97 -192.56 1726.56
38.33 -192.71 1726.40
25.62 -192.96 1726.47
25.62 -193.03 1726.48
38.05 -192.73 1726.61
37.98 -192.65 1726.62
38.18 -192.95 1726.65
38.46 -193.01 1726.46
25.44 -193.49 1726.33
25.52 -193.31 1726.42
25.47 -193.34 1726.36
38.38 -193.27 1726.64
38.39 -193.07 1726.55
38.40 -193.11 1726.56
38.75 -193.37 1726.38
38.43 -193.56 1726.73
38.46 -193.43 1726.65
38.74 -193.47 1726.43
38.65 -193.75 1726.62
38.79 -193.57 1726.43
25.50 -193.75 1726.42
25.54 -193.75 1726.47
25.52 -194.26 1726.43
25.54 -194.18 1726.45
25.75 -194.01 1726.71
25.63 -194.27 1726.56
25.70 -194.11 1726.65
38.78 -194.05 1726.62
38.76 -193.80 1726.54
38.99 -193.95 1726.40
38.98 -193.90 1726.39
38.90 -194.25 1726.60
39.02 -194.21 1726.49
39.11 -194.25 1726.42
39.01 -194.45 1726.59
25.76 -194.43 1726.71
25.64 -194.63 1726.56
39.00 -194.68 1726.70
39.08 -194.64 1726.61
39.29 -194.75 1726.46
25.63 -194.67 1726.54
25.63 -194.73 1726.54
25.67 -195.18 1726.59
25.70 -194.96 1726.61
25.73 -195.25 1726.68
39.21 -195.03 1726.66
39.41 -194.84 1726.39
39.44 -194.96 1726.40
39.35 -194.91 1726.48
25.40 -195.46 1726.34
25.46 -195.32 1726.39
25.71 -195.35 1726.67
39.30 -195.19 1726.64
39.35 -195.32 1726.64
25.25 -195.83 1726.23
25.42 -195.93 1726.40
25.29 -195.69 1726.27
25.72 -195.53 1726.70
25.57 -196.03 1726.53
25.55 -196.16 1726.50
25.62 -195.91 1726.59
25.48 -196.00 1726.45
39.48 -195.45 1726.52
39.41 -195.65 1726.66
39.60 -195.38 1726.38
39.48 -195.65 1726.57
39.46 -196.22 1726.66
39.64 -195.96 1726.45
39.58 -196.08 1726.52
39.50 -196.43 1726.64
39.88 -196.24 1726.24
39.71 -196.26 1726.41
39.67 -196.34 1726.46
39.74 -196.22 1726.37
39.84 -196.23 1726.28
25.43 -196.35 1726.41
25.34 -196.59 1726.35
25.60 -196.32 1726.56
25.57 -196.52 1726.54
25.75 -196.74 1726.68
25.39 -196.69 1726.40
25.73 -196.75 1726.66
25.57 -196.77 1726.54
25.60 -196.85 1726.56
25.63 -196.91 1726.59
25.79 -197.24 1726.68
25.71 -196.81 1726.65
25.86 -197.28 1726.73
25.37 -197.59 1726.38
25.44 -197.29 1726.43
25.76 -197.39 1726.65
25.51 -197.37 1726.48
25.27 -197.89 1726.22
25.24 -197.81 1726.22
25.94 -197.75 1726.73
25.94 -197.81 1726.72
25.93 -197.47 1726.76
25.94 -197.92 1726.70
25.55 -197.82 1726.45
25.61 -197.78 1726.51
39.75 -197.45 1726.42
39.78 -197.44 1726.39
39.50 -196.91 1726.66
39.51 -197.52 1726.67
39.65 -197.20 1726.51
39.55 -197.08 1726.62
39.61 -197.96 1726.56
39.65 -198.14 1726.51
39.59 -198.12 1726.58
39.75 -197.79 1726.42
39.67 -198.17 1726.49
25.95 -198.37 1726.63
26.07 -198.23 1726.74
26.08 -198.05 1726.78
26.09 -198.27 1726.74
26.40 -198.43 1726.91
26.18 -198.52 1726.75
26.17 -198.48 1726.75
26.45 -198.58 1726.91
39.58 -198.14 1726.58
39.54 -198.25 1726.63
25.67 -198.71 1726.29
25.76 -198.68 1726.41
25.59 -198.87 1726.18
25.70 -198.81 1726.33
26.18 -198.85 1726.69
26.09 -198.93 1726.63
26.13 -198.66 1726.69
26.11 -198.81 1726.66
26.39 -198.95 1726.81
26.43 -198.95 1726.83
26.25 -198.98 1726.72
26.04 -198.95 1726.59
26.13 -199.37 1726.57
26.47 -199.25 1726.79
26.41 -199.18 1726.77
26.41 -199.39 1726.73
39.65 -198.59 1726.50
25.54 -198.92 1726.14
25.51 -198.87 1726.10
25.65 -199.13 1726.29
25.69 -199.22 1726.31
39.47 -199.43 1726.58
39.44 -199.40 1726.62
39.70 -198.70 1726.43
39.54 -199.00 1726.57
26.09 -199.73 1726.46
26.28 -199.52 1726.63
26.19 -199.53 1726.57
39.12 -199.47 1726.92
26.22 -199.87 1726.51
26.24 -199.81 1726.53
26.53 -199.74 1726.73
39.58 -199.56 1726.43
39.62 -199.78 1726.33
26.17 -200.30 1726.38
26.11 -200.23 1726.34
26.26 -200.09 1726.49
26.61 -200.02 1726.72
26.40 -200.08 1726.58
26.44 -200.53 1726.48
26.39 -200.31 1726.51
26.45 -200.37 1726.53
39.11 -199.77 1726.84
39.40 -199.63 1726.58
39.09 -199.74 1726.86
39.03 -199.95 1726.87
39.25 -199.75 1726.70
39.14 -199.74 1726.82
39.45 -199.80 1726.50
39.49 -199.67 1726.49
39.09 -200.11 1726.77
39.39 -199.92 1726.53
39.50 -199.97 1726.41
39.40 -200.16 1726.46
26.03 -200.36 1726.22
26.09 -200.51 1726.21
26.32 -200.58 1726.36
39.20 -200.35 1726.59
39.33 -200.38 1726.46
39.25 -200.55 1726.50
26.52 -200.87 1726.44
26.37 -200.99 1726.27
26.66 -200.92 1726.53
27.04 -201.06 1726.78
26.81 -200.99 1726.63
26.56 -200.83 1726.48
26.27 -201.24 1726.04
26.74 -201.42 1726.43
26.49 -201.28 1726.26
26.60 -201.26 1726.39
26.86 -201.29 1726.58
26.74 -201.12 1726.55
27.15 -201.32 1726.77
27.09 -201.42 1726.70
27.06 -201.33 1726.71
39.08 -200.99 1726.52
39.02 -201.16 1726.52
38.90 -201.14 1726.64
39.01 -200.94 1726.60
39.08 -201.22 1726.45
39.18 -201.23 1726.34
26.58 -201.43 1726.26
26.55 -201.57 1726.20
26.59 -201.56 1726.24
27.40 -201.41 1726.92
27.12 -201.52 1726.70
27.21 -201.44 1726.78
27.07 -201.62 1726.63
27.06 -201.59 1726.63
27.39 -201.71 1726.82
27.44 -201.51 1726.91
27.64 -201.68 1727.00
38.70 -201.66 1726.63
38.86 -201.30 1726.62
38.67 -201.66 1726.66
27.59 -201.81 1726.92
27.50 -201.81 1726.86
27.50 -201.80 1726.86
27.37 -201.79 1726.77
26.98 -201.80 1726.49
27.31 -201.92 1726.67
27.34 -201.86 1726.72
26.68 -202.16 1726.18
27.11 -202.11 1726.47
27.43 -202.09 1726.69
26.83 -201.90 1726.35
26.97 -202.33 1726.28
27.26 -202.26 1726.50
27.48 -202.12 1726.72
27.30 -202.35 1726.48
27.48 -202.18 1726.69
27.23 -202.35 1726.43
27.84 -202.26 1726.91
27.68 -202.43 1726.71
38.42 -202.41 1726.59
38.51 -202.30 1726.55
27.20 -202.47 1726.36
27.51 -202.57 1726.52
28.10 -202.41 1727.04
28.03 -202.56 1726.91
27.89 -202.64 1726.76
27.79 -202.62 1726.70
38.26 -202.54 1726.67
38.31 -202.82 1726.51
28.20 -202.71 1726.98
27.89 -202.75 1726.72
28.06 -202.70 1726.87
27.65 -202.79 1726.52
38.12 -202.76 1726.70
37.88 -202.93 1726.79
38.01 -203.13 1726.61
37.99 -203.14 1726.62
37.89 -203.42 1726.54
38.08 -203.27 1726.48
28.30 -203.76 1726.57
28.20 -203.66 1726.55
37.84 -203.55 1726.50
37.87 -203.51 1726.51
28.35 -203.82 1726.58
28.16 -203.81 1726.45
28.23 -204.06 1726.40
28.51 -203.96 1726.65
28.88 -204.15 1726.84
37.26 -204.05 1726.61
37.38 -204.01 1726.55
37.14 -204.13 1726.64
37.89 -203.73 1726.37
37.85 -203.65 1726.45
28.22 -204.18 1726.35
28.34 -204.20 1726.42
28.87 -204.16 1726.83
28.77 -204.40 1726.64
28.51 -204.44 1726.44
36.88 -204.34 1726.67
36.66 -204.67 1726.61
37.08 -204.32 1726.55
36.98 -204.42 1726.56
37.19 -204.38 1726.44
37.23 -204.31 1726.46
37.26 -204.36 1726.40
28.56 -204.50 1726.45
28.85 -204.65 1726.57
28.91 -204.69 1726.59
28.96 -204.67 1726.63
36.74 -204.73 1726.52
28.79 -204.93 1726.37
29.00 -204.83 1726.57
28.95 -205.12 1726.35
28.91 -205.09 1726.34
29.28 -204.94 1726.65
29.44 -205.01 1726.69
29.34 -204.90 1726.71
36.31 -205.04 1726.56
36.52 -205.07 1726.41
36.66 -204.84 1726.50
29.51 -205.12 1726.65
29.48 -205.24 1726.56
29.72 -205.23 1726.68
29.71 -205.27 1726.65
29.59 -205.04 1726.74
35.72 -205.22 1726.73
35.64 -205.20 1726.79
35.64 -205.44 1726.58
35.93 -205.35 1726.50
36.01 -205.34 1726.48
35.83 -205.48 1726.45
35.82 -205.39 1726.53
30.03 -205.79 1726.46
30.17 -205.86 1726.49
30.28 -205.75 1726.63
34.63 -205.84 1726.55
34.71 -205.75 1726.62
34.75 -206.01 1726.36
