9.725075854784828 1.696417149391393 9.990353418401963
-1.2897940461648898 0.9184171354488956 46.288606727522925
1.2168303466053354 -0.19514427699103382 5.175761996729739
7.195586072016707 0.6300465138980366 8.996399735120052
1.9951638666198455 -0.4453189348451783 5.73084834133794
2.5903821146946973 -0.0776700936476522 17.099793441020964
0.4837663136796808 1.8987739635435332 20.475245589198188
-2.6166496063382585 2.060818198701139 46.23453997294594
-2.35281659300165 0.826312672696566 28.72646276921779
0.8249150912780001 2.379870421300664 45.333127370587746
4.10636919236772 -0.251063491416027 10.158934829195523
1.0045907330113137 0.34358926235841275 25.45353041783911
0.47815308702436954 1.5995144056073938 19.637651043639245
-0.43867691527383035 0.07964798828227417 21.960845538133498
0.6794145584482163 0.698910579495701 49.898190637895766
5.621323841387133 1.028932035970604 11.627859708341976
1.418689512719687 1.64050881160389 18.59254267181188
-3.006351522661881 2.0221445555598536 40.71271282356742
-3.9333117062683267 2.2508574836507984 35.65459651568786
0.44079247346951245 1.7006326973714394 21.525204068117553
0.5915149190140334 3.397832985236054 50.15765855651597
1.1967502822857174 0.5966190248427633 9.968349854527228
0.7317335444856518 1.8286551580804795 21.484087631521678
1.1147345688149488 1.4542578256667618 20.62658376594081
1.6356395211718138 1.6542331046355665 20.164726796566306
2.042528127787818 1.4085360033342254 6.631051845131971
1.538255773322368 1.0594205242355648 11.889297593045688
1.2128921015815628 2.151571721231261 21.233173193731098
0.338112788224488 1.9446187239102735 54.85237509366738
1.872244539794517 2.0601861958412346 20.289547611777277
1.5791432990066607 1.6694312074241366 19.424685039782318
0.17904369623761235 3.0746877232511447 56.58739493247537
3.9525076449507717 0.022659552932989407 2.601609376430808
0.05427612823115861 1.1334829917901914 47.613574600490026
26.672813662530807 1.2043399234719019 9.44972734225425
2.0261715920279704 1.3956678790977026 16.313325198210237
2.597417941211335 1.8360373608674854 15.816781356885622
8.945315104661724 -0.3814385122592568 9.767244566766786
2.4703015781154973 1.953666410866249 15.011845062799575
4.720226720353413 0.136347152889961 6.317811376594523
2.4839827106382493 1.4775061172893587 17.76942706333324
1.385643976302392 1.0157958968295278 0.44254424809330456
-0.04797159635794282 0.3754278949828569 3.5692921261034405
0.023733116029826314 2.86921109519142 45.10583397857173
-1.0812516911566714 -0.30533629882719754 29.070382447616108
0.6724729710768549 1.7063942761800113 22.074175989109218
12.024362591528222 1.5038155202582448 10.097660231375256
2.911511580774443 -0.3855194348050607 2.943028885447742
-2.3985872976819578 0.40798506594784156 32.92480343427177
-1.3779329534802836 2.142766147636359 29.903255522203825
-1.483179707153234 2.0797067977764807 31.850073369475723
-1.0714446509466669 2.3058291529409995 28.029289875607628
-0.16965759430649013 0.27938333350196665 27.33851672879115
-0.9206036172540624 1.8465828694893842 29.935671836352366
3.9260567630584675 -0.30955499458189883 5.10739840675145
1.7959739634937715 0.410566023569283 25.726600751215173
-0.9730567191034989 2.2813664489821663 27.623510112237007
-1.574374670631362 2.09359099742521 48.68015105079248
1.2767323750727329 3.3929020254553226 50.71808175280232
0.7765639418796271 2.943619708548606 45.60861479215671
2.242722488888481 -0.47876487599822126 10.721776859500533
1.2392644667355819 1.8270348820763287 25.145120513541354
21.457329622206007 0.02817014993381617 9.563918328954166
0.021479951189800617 1.916344830052961 28.716796440981863
3.748127379360305 2.690398763930183 53.31309433066148
0.31334077429079576 1.8253419331401073 26.983296368325806
4.370087490408433 -0.04582564291981012 8.397807045132632
0.629086293750142 0.08525534822557237 5.902260341838367
0.8260334274122005 1.4244345805882632 27.748826679939604
2.4729573576218145 -0.4430019353540122 14.704392719682478
0.2696594151784401 1.7515832001846907 26.038320576602437
-2.3122283638462235 0.4418513575398837 41.44434662223812
-0.017590528771971925 2.0779651444112996 22.416330284905246
1.0606069512848753 0.46895581322017 13.297585254185913
5.500051930498074 1.0792019939315278 7.572655763185513
5.600448760161174 0.3369216394956299 12.95111011187223
1.0447148794298147 -1.2432137395355123 0.6497190588329843
20.247188458558327 1.4382691140802568 10.421206874217773
0.6410180805279292 1.9094599825675194 25.194087692817437
3.1173808258905114 2.978558415574578 58.017247037511915
0.38667656375907067 1.2713957873146682 0.9926649074355198
-1.495200240173435 2.787008656925327 46.05902442839675
0.17454432977531667 2.267133510135846 44.61582877730132
2.5288639807867916 -0.9327035792951646 1.9708138535788289
0.703615274014545 1.9979399899544719 23.329575631541434
-4.589329429351432 1.4984042811260734 35.729245021242654
0.6902842428567266 1.9888951331449347 24.414271759674808
26.888725308797273 -0.4047387989144019 9.934899808604918
-1.2308799079951955 1.9831573615877185 37.362634638438514
1.3516380373405346 2.1573731715084756 23.024027837417723
2.4983190666951294 1.1960431710974697 6.280009672053489
0.6723587879401806 1.752858063633199 26.06447449580954
0.851766930345441 1.4582436538830403 26.16910879699528
3.2835833061816673 -0.1685059983354621 3.959219802505578
1.0025981704619589 1.806097550895486 24.022583284173642
5.260774655653564 0.7215035430413135 14.049712887161986
1.6238727176185446 1.8650404218626861 23.045993864530097
5.580999456807587 0.6846650701524248 13.33548993057215
1.876038391619159 1.5523580730061233 23.49099428428524
-3.977265649028589 0.9610286266399746 39.71165758333452
-1.6813472415239827 2.5196564267216113 42.31769718337008
18.82524045691246 -0.46820678903606927 8.966593964005153
-1.5512785280721952 2.476112755968136 40.218387739631645
0.3090748256098957 1.7119194894831988 27.615100915803673
5.199478312079143 1.177125700842612 8.24318323378298
0.2980008905707497 1.685740059855229 29.262711309119936
3.437997198492783 -0.2630684484926528 15.605041823520729
0.0037987246926134838 1.406061229653109 30.03856941419835
0.3135375911001542 1.772014146957218 28.45930097571872
0.7511794322857699 1.6030713186330547 28.406459555755
-1.3508175920588392 2.862817472807199 42.988933009586326
3.248315670132638 1.2209347581918262 6.681394769813332
0.6591467958951716 1.7738414895020025 27.129416808444027
-3.4619301598694108 0.5126530111968448 40.602687109321394
0.7535686749568583 0.4774430225406664 5.060808980899199
0.4164899861093879 0.5649903781568598 29.25784296063759
1.3123615797231956 1.5349136495603126 26.058389156566097
1.6172743164401424 1.434239989171649 25.499477814014675
22.813699647007965 -0.01519726043467523 10.744227798248524
4.0761326732773275 -0.6190749636380366 9.538325629677896
-0.4016032094743738 0.8871507673352409 43.73816484875362
2.2457273748946793 1.237800018318338 22.359495732884103
19.95014537934661 0.479463498261735 9.45512018229028
1.4261705728067655 1.0249617913865068 26.640918500010333
-2.8191360730512667 2.112006134687949 30.68769096101484
10.280313907073687 -0.6657640719922139 9.922568626108887
5.522634398323646 0.8040731556855134 10.889505963908437
-2.8435799654753184 2.250216984807703 39.46633134115345
1.84172223990929 0.9389931631559925 24.629217309743176
5.003545024683232 -0.641998946870364 8.349074320141575
2.479699324250236 1.969028999690349 20.62970663455887
1.2165623701493957 3.7360194171767205 53.08218557803676
4.947441216426548 -0.4194392779221282 10.5342199272214
2.395366650805128 1.596519255141499 19.821700565813007
7.044865273094962 1.275725252962885 10.279288071116296
-0.24660228249477772 0.9179386748626854 1.621323445009049
-4.474593251753427 1.9543857238443305 35.5644991140963
2.401764374908737 1.3270173381975408 21.938375857711666
24.297354875660456 -0.3682551791129964 10.637356841142532
-0.5702404245833759 0.5575769984252186 20.099775739162624
-3.5516886085732358 0.3758525786250714 34.90569580122489
1.117760948399355 0.36058100859900355 14.477407763691172
-0.9142166620639743 2.10178357361643 59.4844613333497
2.89677289808075 0.7742814755132282 19.73805048295609
1.889187900010013 1.9786568417578279 20.96373417475937
5.809736570636573 1.3139459152543251 9.389333713286
2.779932294910201 1.833457698069889 21.67165619306127
5.229035528867461 0.13899713458258922 8.636971976406645
-0.5338461220544859 2.034393575165374 41.97936450201606
3.4057695199810993 1.4128494038750807 17.33286786835655
1.6591303243214808 -0.9730357870013235 1.820258743371211
3.249823343019225 1.431314940759446 15.091086084400995
3.071879318385539 1.2122589109431268 18.303158208393675
-2.6882144123812113 0.7466292087566586 27.105715208328967
-0.07328946197191999 1.233358519767422 47.30122695310004
3.742741858940898 1.5500878682222734 15.271312924223315
3.7472294207879333 1.4592200048516402 16.453719735131425
-3.5364430626216974 2.253823995334003 36.51122977494839
2.9573260161689636 1.5259577336386578 21.344791295456112
0.7118095172973506 1.3779881354568617 51.034755003170346
-1.2428232793940555 1.82317411099435 49.39762267039666
-3.230754242495932 0.281041815991822 38.15883792312154
-1.1643643490825686 -0.16325982233366215 27.697214480309796
-4.266749816374714 0.7615953463430031 37.293437641298475
4.794892106630295 1.161726474422583 12.673610098082799
2.844583826951359 1.1520125048461476 19.535223234522572
0.29531547302708205 0.5964321253979935 29.99130504621902
3.1349735357378603 0.9923829150872526 18.875719349347943
10.835223709638461 -0.1798401002247893 10.112821454171835
-1.046740531205416 1.5003986196741352 50.124824665325114
4.72604570743703 1.1492088751875387 15.014278971362428
-0.08984054981736345 2.810543370392874 50.65822372089335
1.4940847554865764 4.232868062352385 55.611403481132236
2.956312874320316 3.4530837034516204 57.80682823495124
3.0260107811044077 1.140803016392102 22.262447266192744
-2.434313080562392 0.29038839507323183 27.71461858884157
4.461016683448366 1.4222381871025427 15.5563106684689
1.1024695370857762 -0.8941899660119745 3.869193590845323
4.45751798612112 0.6094022301548228 15.730756396625758
5.8411906491365935 1.814102212525881 10.693398181979731
14.420932652116225 0.6367528343644019 11.309049271250052
28.36101417841963 1.4418538465428907 9.778496529744476
4.645828362012379 1.3696161700685578 13.077414844095054
4.202565841855588 0.6595393931222535 16.556465963542227
3.3078685596475075 1.5658409027929268 13.869405272774427
-2.6849407503972804 1.1480596938050966 43.10000915271679
-0.46776009388343515 0.2688592888832896 25.988581963870217
1.1408649359305256 0.6327902498153777 14.003364657115428
-3.6083907669523914 0.8585611528424504 30.71013667529993
2.1300941499426425 0.4780759036317056 20.23660557306277
1.622957572543413 0.8219129746038276 12.253256723712399
1.485474932251168 0.9263830166947925 10.854313019188778
0.35637098140281753 0.020234076423007757 19.63643169288059
1.4145686093159728 0.9193180240196306 14.188248814075527
2.706100574661725 1.57943497134023 5.251286832142923
1.4761698642627725 1.5437676654347674 13.306103607443037
3.2890643291982555 3.09192159934103 56.72983992734711
5.336171136093995 -0.2544448568676978 13.175404910929732
1.2785057775958886 1.4834937561648112 12.435171688550724
2.305617857090989 1.0522299244945412 10.89167475774093
4.7704102738932335 0.5355612399287075 5.247009791918252
1.568449776186115 0.6782123821696552 9.41235706993963
-2.8843423357148943 1.1632340221752813 44.946890674654796
28.75849698690546 0.7430858625705143 10.80086044199161
1.901620826753401 0.746525212001951 7.651471852650439
1.7011420068252814 0.9775047832264894 9.928460769453409
5.537338937332398 0.3496002983926588 7.618537390100857
1.9356129644224946 1.0012495471623315 9.72753031171754
16.84341254608492 0.4625293890815624 11.211438551331684
2.4761175661657835 -0.8110374841096473 4.450713567889064
2.4070913347259415 1.3212725591449181 9.933677623312045
20.80980733735784 0.04255379173935725 9.362560372026937
5.181203383627107 0.6458136025967757 5.918857859127215
-0.35528124578690073 0.071168473494971 21.241363224517023
-3.6749904629633185 1.1231661990818644 29.62136556440801
27.925709175177595 -0.39584888973048227 9.882613938240155
13.697133752013155 1.6872850667334685 9.060275015039291
5.0682987596054 0.5384652293814448 6.501918031629223
2.241528094749325 1.6908173904452475 9.162429381168993
2.001446242802643 1.1091027997322418 8.549098824240351
2.267178540187522 1.2758075753365832 8.524811110668844
5.047642333425798 1.3612936144028542 7.321537343563872
1.803727111051589 1.2472746915421609 7.392630476155244
4.7259184491564135 0.03339443892742952 4.268520869751607
2.370025168133303 1.2271487267095187 13.12467650514164
2.257339482815032 1.5998189873627056 12.514987815974386
11.348314923578894 0.9472747864394602 11.246852104580128
2.055094301272914 1.4455402201288177 11.708070575037194
2.7106159727639474 1.5751000819467822 13.957100676935063
0.7116869571268698 3.806102501943745 59.374110223874084
-0.4557940180905586 0.23097606964259787 24.280860572220686
8.191258518937047 0.013271568953875337 10.821886763620968
4.850671273737285 1.054605663418923 8.353744779995338
3.0688128135491937 1.6581050512739834 12.36282101480998
-0.23598401471779992 1.9898214385101802 54.68413973172403
-3.8299230599681633 2.109948812477073 42.09113123868722
3.1204756560781783 1.266064275979772 10.83508268189412
-0.36904717113518815 0.671006479478769 31.413786312626574
8.311334595554456 -0.39179095503984857 9.75613692596245
2.276933325429848 1.3346800988728447 7.682340022156877
3.2477729049734445 1.5285410272935342 10.355267981596782
2.89721697272091 1.472609337561314 9.463784505312674
0.5377127083780621 1.715762087384312 56.702013825387105
1.8306468618839884 0.267664349553586 23.017118934709025
1.253102904859774 0.8321249149354619 6.040091584340766
2.282689948762364 0.2345958125929874 21.153500941673187
1.5299288130601894 0.6184761424715414 6.865391524560399
1.9719688513466473 1.3750967395804095 6.724300944787016
-4.090576856959465 0.42801651376715993 35.66189756376516
2.976550267346503 1.7946436623197264 50.022791347203594
1.4065625328407823 1.0490460737909983 6.0270442910699344
-0.5086392206083905 1.6566348203810806 40.70133624138286
2.264145332377198 -0.433611134841013 13.27924190445405
1.1824473890489364 1.095837942005655 5.408664184378729
-0.05382890959925367 0.05873434607176827 23.105833388456364
-2.619324265132628 2.498182077875888 41.438919904856085
5.415438994366058 1.0111858791887944 13.172559571841802
-3.3804071441759533 0.230652992811486 34.22125990664287
-0.2943140905471733 0.10200585385430119 3.689372616792967
-1.1931394580905463 -0.23885721654052197 1.9065196611446926
2.7910794938254537 0.5935769203793777 21.240195414448944
-0.6974301968606598 0.5511814931998379 2.3448370692179386
3.224030077412452 -0.7916054961157464 4.336562390834323
14.371557397996575 0.7678638097720183 10.484883000081192
-1.2639722517213565 0.8653121038112361 2.097493542037574
-4.4317658532816235 1.1832816570063105 38.14786943666376
1.5958512185222324 -0.04791941462648555 10.000932286519484
1.1231826211488267 3.007490800358971 51.6873593468547
-0.362113382005249 0.5162959987068725 2.85074653351856
20.83268248014855 -0.6666794561926581 9.9392499325195
-0.9690733496091667 0.6237836855338088 1.3428564477781975
-3.2222296374447295 0.5289721729571142 32.392810234328365
-0.12101427117571018 1.7303419493992924 57.88845135356414
1.483084719354074 0.9292779297419498 5.384303480151462
1.124111683688527 1.2743726371148334 3.6037174188938406
2.4986548704607072 0.9144570628692088 49.07949690443903
1.4640201161537592 1.117071393311205 4.5317903670150494
0.8742491770369277 0.4372187555877738 19.499873096850862
1.3476881299841206 1.0379398542548515 3.3489692218146447
-0.1632832480672335 2.9773982259784177 48.426479529764265
-3.3988901423039213 1.2806170437281774 42.79281925121955
23.271074388142164 1.4340958272967357 10.608893852021207
4.7970833257238965 -0.3982754150680608 8.809488987570752
2.837555864979865 1.804610900377147 54.904450029673264
2.487116476534724 1.7265008317366588 3.921790087134377
4.038824890881946 -0.42973802888354423 10.325203735569923
-2.2844533478752327 0.21118655788289056 35.73846245851758
1.5725492746612821 0.5974931951293787 25.014494038893158
0.48619563812843697 0.7553721026013269 3.761485754134916
22.922638475803502 1.9798369218780907 10.300745456785002
2.8640684569208963 -0.050446328126025786 19.526867232800058
-1.068155498914172 1.1357360371399357 35.350136489318196
0.5573521715691527 1.0955765985666646 3.01497163123143
2.4804294720222786 1.4603219209586646 54.019515386600204
3.3945653311271924 3.141249583247441 53.84379727208483
16.057862347403304 0.3931125132181135 11.323252525525026
-0.022094036750740176 0.9232621515499718 1.08038689130941
8.653503219957033 1.1003500940654551 9.682378315350377
-1.976571641295252 0.33223240151264083 25.2392983953406
1.3741020684524696 1.2131971063458562 2.5342831381891537
-0.8954800153328595 1.492861633048534 36.19433092510121
1.5870076949839218 1.074435830998474 1.964883339534015
5.288103197211927 0.7141379509672492 12.377984880904647
-0.7537798660062263 1.6305076211052294 39.31833988355467
0.716971910965846 1.4884702716577642 1.1530882441192158
-0.36945047318406044 2.0322193687366505 52.80264403391937
4.7798954606221065 0.9100029047175234 6.136341568508516
3.090049249964992 1.9394733409199754 13.224218592627743
3.9344774068182637 1.2632845410660003 13.24328670680777
3.817032565198442 1.4838576314582168 14.28029144169362
3.903351242153146 1.570872727577204 12.126045979583491
3.8942468336862786 1.3647416779635861 10.378005404671311
4.3651776996586324 1.5189381351030555 11.289730616391303
-3.0385744361282834 0.1222242104917016 36.523509870260426
4.8440004429304935 1.6370749193372622 14.153123778691374
1.9206121447042546 0.6516015683501163 24.3570670184605
4.452387948596507 1.3077524292093103 11.653568924408638
25.53661397654527 1.3893624860785978 10.727399240820446
-4.247389432066499 1.8432452638556613 33.359662358784284
3.7991753272496096 1.7760585172628705 10.62748067363436
2.9563143233527684 2.570045526213674 58.25538526575752
0.5683804962400958 0.6410843560521511 26.905557932913396
3.9903403477697865 1.5161242674594981 9.373183599785849
0.7001368596009383 3.63939092562604 54.65971246624877
1.8377554230315156 -0.7705541083497508 -0.518413281054281
0.7885725756073643 0.23761177517549267 25.80569605733937
4.031301165692594 1.525734655102286 8.694060257281144
4.211904056790817 1.4609786445757278 7.555341311177656
1.6705692387468583 -0.06710905386871639 20.564508630439587
-2.358104652758191 0.4763184376498064 40.12883449678667
3.5550186666643846 1.2426848062658629 6.5768170755504505
4.668890563748967 0.9428065852525097 7.871046399377025
0.6367657495748882 -0.017647737826006177 4.826514666967948
4.610924092929377 1.0567316597281802 6.8640649471313555
10.380243081322268 0.5474995268623019 9.103456146823556
4.897911061008119 0.3389676395113448 14.187995981670417
5.047463266062981 0.9057730280725335 8.539708369752637
5.025828864956322 0.41426373493023305 7.737949210318775
4.197740621694344 1.2856602356920426 6.043500492481904
3.439851432731374 1.7336221678446806 5.667760079805078
3.471751272379038 1.7357699578921566 5.202436958040836
4.319863624686952 1.297582838581349 4.989707526756881
-1.1081453231760698 0.6362724259112249 35.787393742569314
-3.0913061494937994 0.14959531658377795 30.335928959693124
24.147567612951423 -0.35034258220617315 9.366495289542202
1.5878141819061617 -0.7494464235618944 1.1418822160478972
9.683255422863265 1.2583483803175668 10.486368877202901
3.898731456048875 1.1859787810801008 4.473946623839008
3.2745184638171634 1.2562943954353507 3.6605929063366585
1.198767943694873 -0.268675584863108 5.07649693173886
-1.2629486771398248 0.1149544480145437 28.37656107688954
3.147571549540048 1.3757496606806752 2.3816789378098373
3.3171182337514966 0.8106442804750509 3.0140717982851717
2.1523979831092994 1.4908024302450642 2.9641496750892404
2.636706717406498 1.3104258952060526 53.78399518206377
2.2284485430572256 -0.7562625222185807 3.0565540994229203
1.5977617401077744 1.3184744052136348 1.116515486467244
0.5844626582573769 1.0745529453366995 0.2327423093955943
-1.3549874723853206 2.599316304025363 42.506193855930285
5.08380310580949 0.41296530758501915 14.95612891102529
3.1510506925087105 0.7923127867738751 2.1899458027197043
1.3360833062392914 2.56615168392645 59.88183436616385
0.2829917652139794 2.043744084780305 43.18665469959044
1.9153034658759043 0.11890533203530673 21.943604566921742
2.4214291312570766 0.8444471313601687 0.9640715692694828
1.0764497593684883 0.03418434365790417 21.057367762807946
3.4884185813530495 0.6327660683179404 17.0193570787025
2.7455776375642276 -0.7185620130886424 1.6854565280204372
1.516297408643568 0.44937090683902614 0.7743378217269533
-1.3857030035419107 2.760326708550967 46.5687748375329
2.718604288215103 0.20789525778974727 17.805415428062183
3.7540310721997825 1.0778737831788912 4.0397501238968685
2.2428800894070493 3.7092490357351986 53.098713837995355
3.165747157562994 -0.5728885834777191 7.998795303281274
4.523748849343851 0.9343073196624275 4.578768715448168
-2.4253041090452543 0.6909807781215116 39.418108917223
3.0902226835942344 0.768687370621965 2.1305580333160417
2.6005113144307836 -0.20504269309716566 16.875839624943897
3.0927799184993563 0.41368470045812955 0.9769040234613335
-4.725061209046382 1.4966118887178927 36.507724437168
1.845230284535887 0.19151789262343705 0.006267101825126686
-1.3979907495288524 2.2413736644445694 32.08691105133456
-3.2674814039816105 1.4938120961457935 43.38522440921978
-2.1604411561084773 0.6262661048497045 27.393336679880605
3.69806410750616 0.24178499120562585 2.1366578855607714
0.2556258370786664 0.5725450362577515 28.33309212427276
27.206182770918915 0.5436292094913406 9.073718051958375
1.5605744945096398 0.8113235870770114 26.912146847461756
-0.7445602459568308 0.8902937369224619 43.83944557666364
0.7365552328356019 0.4348587727947958 27.652382371148676
21.041835228783082 1.125297456771122 9.51792150340178
2.6321534329945457 0.3860067194608184 20.472031886491553
0.0740915623323965 0.23102376822883805 25.12426269881947
-2.1295587801167755 2.499902834281836 43.60362158662997
0.487720821719909 0.9881563944785842 29.173598263505927
3.5698429439759116 -0.4349643165131485 6.255598440368573
1.7324266867704174 0.29174859077494547 24.58641134332752
2.1875839736463973 -0.26623287791364836 -0.26640877833914084
-4.66441889543943 1.5190068336707425 39.56357889431324
2.268151538037035 0.37751549135288415 23.332942991254516
2.3463077814758706 -0.3038165603621892 12.640913669646784
1.775150227621813 0.100816626692487 23.843494268161653
-4.611223925363341 1.424225807964758 34.824066467488485
3.2867269528143055 -0.21858490986561563 3.992536604044325
2.9067586336385345 0.5014581569191497 21.859025387110513
2.6705443343654593 0.4354209601914692 22.544006268911218
2.8621567537058055 0.535268665519942 20.333897661331452
1.5905648489102822 -0.10812368827311637 12.304571031213834
-3.671654319773155 0.6031637191770387 33.403414695168955
-0.6401107348907468 -0.32026468742221204 25.96936980479664
0.4410494056889105 1.6899690981600675 58.81872919554878
4.777159460245069 0.5100898157393247 16.26321131489716
2.418259531763075 0.47016474901829397 22.001449869257538
-0.551415441489781 2.713992940365631 51.01851769899957
-0.6117474623570796 -0.3972183994471608 1.6351926173193487
3.0650864121701242 0.3847366960009138 17.60938342609807
0.6596446303327148 -0.7289371461005438 3.5299376791869497
5.399549632550257 0.17448655457456436 10.696604203666647
2.715726085338825 -0.770330172392252 3.2819843878235138
4.534166300487464 0.21570244916755593 16.085203783379583
0.9463687482279034 0.4200003634357683 22.75746158884254
-2.0165775690209387 2.8584793777715225 46.442101282102975
-0.9814310592776189 2.996479712233589 44.311313342467166
-0.5594450410334624 1.8340638595175047 58.95041568600994
4.429958502444512 0.08015625119372143 14.979263776371393
-0.5722090648834973 1.6605046976337372 30.565040469798383
-0.9511475832290909 0.3953168979232855 30.598341553521532
-2.3828791146927055 2.889333319693362 41.272466955383635
-0.7751970997887486 1.3703277589153005 31.580179627838625
2.864946240948991 2.1679817152807446 50.17415999606659
-0.20860725064259722 -0.22921096892015647 29.683386848514928
0.10549063688619809 0.04796677086904866 26.257528633539764
0.7089151097746436 -0.7238477468025852 1.956911646536551
-0.3010350911362819 3.079984866844577 54.71208913026679
1.4089797702222604 3.8735795046855044 55.07710041185862
-0.2495808093968583 0.2927254756499309 27.511629242439145
1.1599071408940589 0.1431092888255011 24.861401950212706
-0.7735014570073697 2.2258634320669515 50.06823862929623
3.6923635890598776 0.003754044994337069 12.548654335349298
1.9899253431834758 2.7377107160274248 59.91682573299422
0.6803634958864414 -0.09892429661590943 24.51748938617609
0.009752030539992254 2.9806202758197338 52.92420305306493
1.266582175181501 0.025159467243127204 24.175107616778217
2.1653124558437304 1.6774863687648225 51.62331393237664
-1.6411113434816864 0.15906890713328298 29.23534470206455
0.9921198879630022 -0.24686001167581006 23.780955231053174
1.5526258542532931 0.16994983503619596 13.236351357009424
2.253954256444534 3.275908785579839 58.813342112757084
1.3404691232528387 0.025666287700440195 21.881678541947245
3.7906289159936644 0.23892025484181684 16.040735495152393
1.7399192046625478 3.1927429811990504 50.22215289930239
4.004592284737907 -0.21012159626069982 15.91756687739513
4.211769424457893 -0.3350768028378436 14.74003438914223
-2.293518799854189 1.0655860221015694 45.51650284136018
2.774445633670491 -0.32280311783236915 16.51775666728102
1.7490125335109465 -0.04717688781421523 21.139281929065422
-0.9628633027437328 -0.6868727772825036 0.7779217919966037
2.299851989644527 0.21442837936356496 19.983350070336108
19.134050226910052 1.4072608170222638 9.316645977006802
2.428961393318678 0.49249177203302585 18.827761248721863
-4.580912026644259 1.9363034855828583 37.52889294744507
2.7898256501923884 -0.030850766845651606 16.716408382082044
-0.6326413616358251 -0.21714029629440287 23.88993734189818
2.6455371398828103 3.4768598362431478 55.5622751532445
3.2191722414740216 -0.012399506508013552 14.89021188256849
3.5507709042310833 2.1399876153290864 54.71094071326074
3.7990562270919304 -0.5318795561698016 3.683334414445866
17.440201393355633 0.04012551083379656 8.914138635563479
-0.7103973953840355 1.2345879915342115 39.169562429410654
2.408700216775927 0.41059635792033977 16.402567326255078
4.442209696134464 0.27149147481211694 14.186222749927907
-2.8141535287709414 1.73059583218155 44.96041682476621
0.9370071771818724 3.1014655744311517 48.61821009637804
2.8867562269814036 3.5155727078327343 56.029399533348695
4.817026888928294 -0.17632462539804677 12.258791264055745
-1.7841898335595336 0.3673206858414595 36.173594865364066
0.6451561819825876 3.187108279841572 49.186821162318424
5.265604687433564 -0.05572645788377679 9.254994476986933
0.1756443280418763 3.9733168840999644 59.74033847786398
0.5425080808231356 -0.021602065886110786 21.817883882020745
4.46622473055482 0.1382074140984468 7.043413916764593
5.651591935384839 0.49354838731260625 8.796104425303223
4.5475627387683835 -0.018746001551897234 7.5214645373967315
-2.512799948796112 2.4311387363284616 33.49848370771301
5.480152513125376 0.693924475603017 6.300840146454315
-0.694881464104474 0.9285226792084253 33.268822967886756
4.814848366217459 -0.00336355833033241 5.508741195627255
-1.6323422316492822 2.0090614541793688 34.94035377718126
-4.935442175246003 0.6308368440589123 33.96991008298219
2.8340269035585273 -0.25538665137887956 1.591911533196347
3.124325217527201 -0.04084313165633947 0.7249392596277984
0.8406512280949565 2.952128654472652 46.534241761001574
-4.305788887659656 1.5399152713089748 32.20108617871411
3.5876602546589864 -0.08627457921657655 2.6164940557780976
16.762892097085317 1.408738334859186 10.02955345048303
0.727828542660075 -0.18132334676790407 20.410413243127028
-1.5622684854436373 -0.05637842263803684 29.945821341179364
-0.043328036182483126 2.9749335001775656 49.469930125386966
3.1043538651755602 -0.38984015294774044 1.79949252783366
-2.3106443894322353 1.5802977719851012 46.66326855558052
13.504481838959672 -0.822433560653643 9.989727868049407
1.554599720651834 -0.7468806062154273 -0.1576136023911059
1.2768045840966213 -0.8215257886725328 -0.5508258125094796
0.8726188333655603 1.5042955783092387 53.80750458886138
-1.695747873871515 2.947142390597854 58.75144980775714
-0.9181871002149272 0.6882558216488913 41.97419004701553
25.838038899151783 0.1213560062158375 10.718674307594554
5.1417011167996565 0.19731310147249476 12.523146502627041
16.62479834910847 1.5834339290602466 10.648158070898413
-0.526705001521511 0.7250248683102971 32.18734372569371
3.8847843971385836 -0.11184887071242788 14.127446490628877
3.6841564947747405 -0.037802858091225106 13.817385748491972
4.1388182915118295 -0.34319488264524056 11.834458511334452
2.935731074021989 -0.325678769325066 13.167531412508334
3.2268169908791853 -0.36138407799129907 12.280840263487637
0.6796677961294735 1.9140363259670858 55.83850284889166
0.8263132822339905 3.846091422596175 60.50217389250328
-2.433840600455174 0.315052825626565 26.990474605596102
2.835304382884568 -0.6681692781851245 9.087681994999052
-1.6058485115901282 1.4550591256297618 47.09603664672634
23.409641823112207 1.500992865298383 9.511752252178972
4.017836941355343 -0.3678908813130043 5.638163260356073
1.8442268938171953 -0.430917166826266 1.2764443275204351
1.2413878371282496 -0.845719716984835 0.48263834883055834
2.45581828267818 -0.8038647315629677 3.4004566497282545
3.1629156648093453 -0.8438167530171342 6.319054272842715
23.94336377294655 0.828219370797093 8.975192680187286
0.9120622145425626 -1.0036049807558953 1.066129960019301
2.8253164566600315 1.4526928259069494 49.915591387438425
22.68158021261408 1.0305894929900186 9.50106958194372
-1.87301136188007 0.0058504012499481575 27.560694207025886
-1.7069306836075675 0.2686634514790883 28.289545870259555
-1.6005916787982006 -0.43800164556655274 26.993490999962013
-1.5716372754181749 -0.12882571150094496 26.236221775519272
-0.883137567819018 0.03403161637591525 25.655279130010815
1.854776708133462 0.070124406902623 8.166984494543739
27.87490199424156 -0.2442622352867722 10.93389593149156
0.033827962653577584 -0.046985712605390306 23.575123604582718
-2.770542619040322 2.9095598837446435 42.54005969466271
-3.3838573851466225 0.6119734352384137 29.523191354354235
-0.9686554801347046 0.16296086225043377 24.235891178045932
0.5625601693787774 1.772623954751518 57.36780068048451
-1.4034854890479258 0.2538920506783819 25.242630556601306
0.02015615553215383 -0.08656258404390335 21.96607809610397
-0.7901393201197432 0.12378644925058863 23.306484800121357
1.3962739336167598 0.16435633138251265 19.624475950623665
1.7580974264786322 3.1486163925131243 52.373554752816005
2.432538772282374 2.4412953674866 58.18252882338497
-4.016550397516653 0.43688057632125227 33.49362686730301
2.6603702241442244 3.606293119806643 54.62572664150024
0.04019447113778035 0.4324059652532268 28.053124885337972
1.523788722733868 -0.06258190798713606 18.97616364012755
2.3141446770371528 -0.1463030277933794 13.985765030772221
1.3428872692510794 0.3039399746577959 18.510994614214173
2.2362123295965652 -0.2662644127658835 15.420448737795681
-0.08534536247735977 0.19139278012887395 20.619891612512106
13.219637999357827 0.013038068243703071 9.015044900478443
1.5337335714535905 0.0012321833174388092 16.4717373617539
-0.9976813849740261 2.143447199160959 31.066153912914448
1.0718881970421026 0.7171546999757162 16.591401289997716
1.8744765137581805 0.3277623742837405 15.631369139420045
-3.6713434590972915 0.32689814703745035 35.830688878490456
1.8628837196774213 -0.04072852766359501 15.277151222181933
-2.9540158500674227 0.16094410218988295 30.286651904519157
-3.137551834481249 0.28739539852524154 28.74890068315418
-2.7548561981622983 0.6206827025122643 26.383083916446054
2.0842024187799315 -0.7161894105786348 5.420030548870714
-2.200626353364606 0.1894840410607181 25.872326824096167
-1.6682015791404408 0.4499849652808487 22.935630054369994
-0.9988415900397143 0.5917274383825191 21.243420909626895
2.042124032217221 -0.032867067247816545 22.780606822026026
1.3121308841485113 0.6235914460830994 14.778257127058792
-2.6723803463413387 0.368939619686424 32.74517031278001
0.3452004485618269 0.7285275753217408 19.093385179068388
19.03702914648516 0.4513868290442826 9.17094620997454
3.2567658283004866 -0.3668743482475077 11.487201008329292
3.0239371731824463 -0.2262482900707228 10.62755309453745
0.6743804490472498 1.4441174646492847 52.705902860281356
1.388712224741037 2.9469478870370724 46.813249985115725
3.471875316580981 -0.22946552163970715 9.805110144775
2.954348703501143 -0.5509346597860861 8.689599034857553
-1.277039104893993 2.894725584143681 58.286204474302714
2.289288225780692 -0.20233838129399193 11.509896304425077
-3.9281977275519906 1.9430173844239111 37.09337816249059
2.5845603506823913 -0.3602625928961162 10.108207208343966
2.3469307557570893 -0.34119686891292356 9.625728947350055
2.702578764782028 -0.14915874204097287 8.568571821607696
-0.24511857964122996 0.7900712426420147 46.09099371398479
3.2053014461845453 -0.6775474786783012 7.0070992295025825
2.0064858299894954 -1.0005008407313567 4.49534774741075
-0.9138209660044496 3.0328997084525326 46.90224450526109
1.3622872109968311 -0.8535740122410282 3.132013676092451
0.7483247828434588 -1.074168659606288 2.437996816364079
-0.27844499292202674 -1.0988912969469793 1.6223184138080378
-0.2501195130677707 1.1354927418263308 44.639661774394504
-2.814731019405202 2.5398259566752737 34.007076073573906
20.757499212837438 0.6504819448416176 8.878457116941798
2.5048161086617853 -0.9123355062311272 5.420051222956736
1.4454310620707846 -0.6517626735952365 4.39917163238318
1.1060686113938605 -0.4368389554731642 6.168173180472013
9.655039490738858 0.6553331664779973 9.157970793593536
2.420260094275338 2.1202588877494364 55.60836360345032
1.4094934302487525 -0.24119819109071303 6.745832911537305
0.6745851640850511 -0.3656162043152271 3.2040555520580973
-0.09869338902635294 -0.40493018524245666 2.5763497032130394
-1.3703521152115685 0.30075807365951124 30.833783204745412
-2.8219009731227978 1.8912166656589116 30.17370936313736
1.831860720813113 -0.2805569894136398 11.925340801475027
-2.442766294773808 1.572319339103384 45.74512651913529
1.8905212775428972 -0.2114340048021434 7.7392561168937615
1.3536018601502922 2.8037949685541195 60.149712344787424
0.3689479307075012 3.042082442911272 51.469153286574844
13.366221270666161 -0.24099997783036525 11.20397133493045
15.946169422902866 1.0887930865929178 9.45963601268515
2.0913235606932536 3.138174129307593 59.49243221624203
2.485356829054992 2.511155557823281 59.80293420540784
2.964821489951949 2.7905066968287153 57.36777607520038
1.44996004926332 1.3046618442273878 47.67211558175887
-3.9932401400585817 0.7758169060830906 37.831978876648655
2.80033428695649 2.5156255604595064 57.14547577133225
2.3863600802218783 2.7332635227559807 58.59908113185703
1.871065593519257 2.919163869913582 49.01545211112377
2.2985617248448467 2.4234089674186445 58.8599830447508
0.8013593288438671 2.3209874138162565 60.725555662818266
0.7492668594933783 2.573767735783595 60.982951104352814
1.8566505074591078 2.1578894334149163 58.92165865703223
-0.9738465688067792 2.041919148299378 39.79860698310547
-4.052961246120017 2.214645072404715 38.12817039191356
2.3632185524330027 1.5757076206966234 56.98153558039002
3.3922990404713618 2.156991059606114 56.73615230475862
3.117564414190399 2.213628569581253 55.41980119181432
2.3848575337669438 3.3004063654191254 57.463027502946765
3.325728969463966 2.3611541494502712 54.55681503822797
15.283110232831028 -0.38929484767918693 9.919108233984517
3.531288424518185 1.9534358368513856 53.94642885822161
-2.13303737529249 0.14400452290299376 30.12338659477834
0.05394760278362863 1.6511254928272052 50.08092379582266
-1.3374861955757351 0.7271613758844928 46.087378117555
3.5071449137398396 1.7941907986571595 54.174345219209044
1.747351713867939 3.441139270721253 58.9343970870362
3.225287562779178 2.0437902483744974 52.4908423206207
3.252075311452867 2.0075204276281693 53.31320231647856
1.2270771406050422 2.832605369973956 48.401684531269595
0.5248347330699822 2.331528619687014 59.83073781599927
0.5243254886512999 3.6129435887248667 58.345351121478146
-0.9140836860950889 3.6097995111403214 58.096893877066066
-0.08859362235601968 2.511923636973335 59.96222706972694
1.4306470875141188 1.6926599634075283 58.07484266083774
0.0031223802531654826 1.8548848522092436 59.850562869065335
-0.6359196087031191 0.7036171694735779 33.91112325987125
-0.11911652054659583 1.7686584217192651 58.73310925890042
1.7410606029988405 1.7566986053902691 57.24262755238136
3.376919568702021 1.4726363740068957 52.14948212677757
21.87707553029493 0.6142075158183835 9.28943773270853
0.6280707047205841 1.6317023309060406 58.291155373494504
1.6107432819748275 1.7289060640358225 56.298532617310784
2.852569453082921 1.7053082028010322 56.0943883611724
2.6371122817489083 2.0605923325905264 55.652003399188054
1.2364365169450426 1.4503625906858673 55.62647122362793
1.3957861047351203 3.816601168034044 60.26595438753237
-1.6696712037766168 2.53774926124509 47.73437146183077
2.6309931026058524 1.7324249763567567 55.04801056581166
1.2982142647938577 1.8073149548426504 54.63218180559195
-0.9127547829257802 0.7415244664429066 44.893938033689025
-3.358571728090519 0.7696303004805456 39.80686761012142
1.691809049938265 1.4610270195598856 53.9101842744862
1.7429770699186546 1.6141480649594497 53.59046778792734
1.7880280859425235 3.5792690557402773 56.38034746055295
3.2154261584467423 2.07065311298393 51.396084069388294
-4.870625324032928 1.3277185773216784 37.3142886146341
2.72765371489021 2.254476406558088 50.96091921394024
-0.7302080761339251 2.693623015238835 59.653096013766366
3.214855467465699 2.3637294238616215 49.40531142726276
2.2524211591348076 2.0392949371233025 48.37296948612213
21.670628205620453 0.5976351828378182 10.802534091711168
-3.5606518863155623 2.4930068224339816 38.50585667420342
2.6888148440946713 1.6621873424100726 51.1808546246071
-0.4503492795898377 1.575812605124265 31.259237239190497
2.8692741570063927 1.5126834222599326 51.52252809077667
-1.5795385971070972 0.487100627169458 37.40735600122068
-2.134220802958933 2.514547314443078 45.23509788565594
2.137192189115593 1.3858358873700285 48.29418365435198
2.626632399695213 1.4403217465135763 51.02073887080662
2.4954960323680324 2.3319714351511793 47.802427794387086
2.316568429817245 1.8392817203904945 47.06749727683106
-0.13441637718361332 1.5887850005174735 40.35289956332508
0.2921480590322928 2.961930505420542 53.12871601238126
2.169414897357466 1.5542310630340936 47.83811523467524
-2.889903842476472 2.13092511231883 35.64154232721686
-4.155339335372511 1.3519617652660922 42.117568090391664
-3.370882810367479 2.341574372434789 34.79271530469857
1.5838092727861235 1.6361654530805034 46.63875365946773
1.6925164180537047 2.5634553486906735 46.303752221010285
-1.007970892305941 3.552852442205197 58.592728047844126
1.648764869976721 1.893786770482747 46.044776066168005
2.5239765017192903 2.593459843743033 50.146838834950216
1.3547264576907703 1.7087043223979868 45.57565005417156
0.9501268597357412 1.2109366611315548 44.9149599093972
0.7623467189004164 0.8271671312723188 45.94705965842684
2.827226882614209 1.3548505425453623 52.392543129548415
21.8456351464952 -0.42015130755642727 9.837862940434388
2.0290581931630225 1.1560643701486784 49.094541202326994
-0.4120332651358296 2.032697275612573 60.093619742287046
1.2562144029780298 1.394758466562173 50.00398800511746
-0.25772706463153244 1.3454795436332407 51.01890327030592
1.730699911367002 1.0495282769080008 52.72120155828002
17.610267646090897 -0.17369619412895904 9.947283990972554
2.378045418438039 3.656836993283658 52.66396072753558
0.34120478305677754 1.9986851435905675 52.39077436889585
1.3732887848532938 1.2503122394801007 51.64404937235546
-2.4341936541282507 2.269926113157207 43.76830495375479
2.4341065773053923 3.1152706568672355 51.06261708394662
1.3648270441779904 1.3976398236834746 50.54503086658652
-3.0508275007434875 0.5127769998506875 38.82615116854069
0.301491095486339 1.122130601120294 47.68032009022593
1.5559014019891486 3.3059628433063284 51.873201002992985
0.43566008449739474 1.0896433206104095 47.276697677015015
1.7115870254417225 2.9977879186700687 60.64554967299204
-0.3068094235134098 1.025261566207183 45.1154528254668
0.7646165101563569 1.1415998068269406 48.05540907558686
0.5635811918629064 1.10606506469396 48.936348982608685
-0.9552474168937334 1.9608739551079557 50.91560160294466
0.3542711324833867 1.1884750115494003 48.11170763358679
0.09208348004251418 1.405768363208332 46.63889294527982
3.1909364089770658 3.3915102249411295 54.737477254455854
15.853239422086679 1.0684837231136772 10.365510375503762
0.0645544605466444 1.2855280303244259 46.849730287333266
-0.013774427071913287 1.1619738472095196 43.87208012232284
-0.6870810455089862 0.5669207413042641 45.7796013541207
0.8780515067289866 1.7671982126628274 43.45021371336819
8.646346752059115 -0.012348535750195757 11.18060389908695
24.14012211082817 1.4331918204880958 10.009783048888245
1.2032568898192533 1.847725820001626 56.55162673976998
18.275812008802024 1.7691136895434842 9.684309083741766
0.33295843445187373 1.9842596117023399 57.19756243158427
-0.7283627096453873 1.9764580911877647 57.80915340297454
1.6199755819729664 3.4868427448967347 57.566728645669606
-4.68677891903371 1.0838995575418613 34.112407290033396
11.956980471862847 1.5510825119041294 11.016386350627165
-0.12133777745697166 2.320493862917265 56.65100981672407
-0.8359421693693334 3.084707906902215 45.96693474718959
-0.9430248080712562 2.010101173260288 57.482569706241485
1.1651041564205737 1.8753657936478716 55.48403191969035
2.9373739934374017 2.8789210551307436 51.167651340429344
3.1464270455485157 3.281992817596114 52.19873783097124
0.8305647046620968 1.6109353208150492 54.97376430564116
0.9401472447923995 1.5686922144480577 53.107421680114875
-0.5353411668539333 3.0212881644502345 56.2777611053044
-0.07477023755105221 2.259716057362558 55.42046996092859
18.15560034639191 -0.5289157648760835 9.932564715185139
0.23608824101921244 1.7849046114461717 53.621789873717915
-0.9698938723729186 0.8330881117549127 39.11999435882013
-0.41402522799500824 2.0567490891159808 54.3531195641829
1.817941481808707 3.6046848449581304 54.076166260690705
-0.4948686893969973 1.9614733321418463 53.27726585912651
11.278241026787043 1.3528982311816342 10.33733754659567
22.942724786384776 0.7315419254264028 9.091296807568728
0.169744905557445 1.481819938344912 52.86057781156513
-1.2751727291167843 2.210542789192133 58.09636646132678
0.04813266567498592 3.546898718217673 56.70526629276977
-0.48644598705617337 2.6705926001359455 56.582164624669836
-1.7546311481908312 2.932349448902489 58.65933460649503
7.272356736601002 0.934747155885485 10.780282951879128
-1.0058529616535652 2.764037491624756 56.87246134007637
0.17932664851904334 3.1376815033440586 60.76584997640635
-0.5025898921180557 2.4714962163562206 55.64502221691514
-0.030660565315224736 3.267967993163449 54.38502314072925
-2.1098746913244 2.4120051636345337 46.86619752861404
1.5106736802066467 3.35542680836869 52.58595387574608
0.9115263267523515 1.205049503357638 51.887611682516855
-0.206477709661939 1.2147747097062898 49.050795482704636
-1.689820566938786 0.9993427468299974 45.9596978323387
-0.9164057952580427 3.5001450991622454 47.332239717147424
19.184216278207728 -0.26579595646470144 10.033390763910454
-0.710429945701693 0.8530394159313082 46.74245603418375
-2.854282521636394 2.0381029807238416 31.43818290751358
-0.7445544592248763 3.9060379907563414 59.6831022233203
-0.6743039671755706 1.4365317011725327 48.30790823049245
25.702667933424646 -0.24366349441855342 9.369687687675347
-1.5080273037031158 -0.11853951439461391 30.7769579134649
-0.8742876000539183 1.7433985388900197 49.776532549351124
22.450989113311774 1.626213466219884 10.389823598920808
-0.4334340553053369 1.7965853208267073 51.748415278965034
-0.6907524630714492 2.0068546948179895 51.7978409934177
-0.24211962100859616 1.784263239921172 50.71213691784742
28.0397655340532 0.5032103859110919 10.808815847390477
-0.21038316532547013 2.217421175739034 52.36556381437024
0.8502770880992944 3.210316067516795 50.481009525281756
-1.673800370066323 1.8142139660537022 47.92322578692771
0.3408965418977622 1.2783021408434123 42.81535502339526
-0.06619978275302665 1.4002448152197993 42.374228280844086
-0.17943985909814827 1.1463225345299017 41.21040254186959
-0.5767885803589021 1.1985390177944124 41.85738819254333
-1.0628201896802782 0.960512599820669 41.27998433080883
0.4718929028496121 2.8133720258400423 45.3279226570285
23.278466204064145 -0.6377015286206649 9.706471192664317
-0.9947044811807811 1.0283362774998568 39.76619613582506
-2.0120596595934055 0.7723614990109156 38.996109381197925
-3.908632991058055 2.023048117981566 35.076888996710025
-1.8214039004001483 0.5803198951698779 37.924021423570025
-0.6059495611310249 0.8974713675854272 44.13175862405933
-1.8097055974804586 0.39365403204326893 42.08899554674527
-2.7685943016801664 1.4052453750838267 44.653645408990315
26.46468189496149 -0.3053540619363898 10.07014617988677
2.534170560703558 3.448717645018629 56.208280401401296
-0.810787751141432 0.8935134894780479 40.50545710086887
-1.9241969417199603 0.2599446245132128 39.478330546046294
-1.5215229074681995 0.8183730846593665 40.25073056699007
-1.5847026496382137 0.6154180151100301 40.93123212973308
-2.387391153875303 0.43314841778824237 38.64109376299728
-2.459162455105268 0.38798901333273766 38.12467487585359
-0.531718398798986 1.7313637955573236 36.98851393732265
-0.8832083233185832 1.4761401963201295 34.6800269263614
-0.8389727919477752 0.5517073997144936 34.79589626553297
-2.6817932339921904 2.382396639497962 33.84543112623113
-1.1441615138675094 0.839777946509018 36.24757650169468
-0.16320114376247663 0.8847790758010032 32.88448187483105
-0.07784120650825904 3.4593880637636465 47.74610545349178
-2.6315214816664803 2.2357440287843353 30.974794447624934
-1.0360411417911346 0.5932962391271319 33.13977235577853
-2.679130662909013 2.1204692833703467 31.824600629170085
-0.6463712977357347 0.8029034306168891 32.898426185987624
-0.29438845558662824 0.5877750710581395 30.984858073312697
-3.345796804169025 2.1567169556649533 42.92636077132582
-1.7604564801485965 0.2485449333241585 35.56998604830491
26.44296833839955 0.12453663696307941 9.469500865440544
-2.4082830878469985 0.13360258221299437 36.44682295021903
-2.0735451508681937 0.5182641796973384 37.33069843044281
-2.419174501809597 -0.07039485260849815 34.849194632285766
-2.348761202336262 0.4944610807291255 34.10811278363825
-1.6365704908330547 0.06608335390057979 33.20596975259222
-1.8003480678637505 0.3047722084424664 33.977364128519184
-1.6510324284042124 0.21182262571187244 32.4372123075561
-0.6326118110535115 0.3490338221903909 31.06970852196397
0.8515700734030276 3.7390769898084972 58.828394966691555
-1.1734690321327277 -0.06717754174997542 31.754087327240647
-1.1614041573564793 0.11046506978609058 31.025701591255643
0.2677767349444059 -0.21750174887642956 4.069394267686332
-1.7582361155182222 0.3178399078250233 32.434050153911166
-2.2445357447476213 -0.13743172857299096 31.52864607664955
-2.3106805747836203 0.3775477909561349 31.048407382940027
-1.519562141717198 0.968858617078732 44.404167628041094
-1.646448187323726 0.6497822961665674 45.375913710666346
-1.6227684983853767 0.814270478302528 43.364309129943514
-2.5101118275145744 0.7329166280315966 41.802491460502125
-2.3383903361646863 0.36051678958271594 43.74651547483039
-1.625153551491265 2.16766404263145 34.296012216214734
-2.3137798409184085 0.5670324554307083 42.99604452668655
