13.172149 -202.103070 1750.765610
13.137682 -202.121340 1750.745758
13.102504 -202.139670 1750.726534
13.066574 -202.158066 1750.707968
13.029850 -202.176532 1750.690086
12.992291 -202.195076 1750.672920
12.953856 -202.213703 1750.656496
12.914504 -202.232418 1750.640845
12.874200 -202.251225 1750.625998
12.833030 -202.270065 1750.612044
12.791195 -202.288824 1750.599126
12.748898 -202.307385 1750.587391
12.706344 -202.325631 1750.576983
12.663736 -202.343446 1750.568047
12.621279 -202.360713 1750.560729
12.579177 -202.377316 1750.555174
12.537633 -202.393137 1750.551527
12.496852 -202.408061 1750.549934
12.457037 -202.421971 1750.550539
12.418394 -202.434749 1750.553487
12.381125 -202.446280 1750.558925
12.345434 -202.456447 1750.566998
12.311527 -202.465133 1750.577850
11.638008 -202.473270 1751.606836
11.630690 -202.474037 1751.649022
11.626203 -202.474511 1751.691404
11.624447 -202.474702 1751.733944
11.625322 -202.474620 1751.776603
11.628730 -202.474276 1751.819343
11.634571 -202.473681 1751.862125
11.642744 -202.472844 1751.904911
11.653151 -202.471776 1751.947663
11.665691 -202.470487 1751.990342
11.680265 -202.468987 1752.032910
11.696774 -202.467287 1752.075330
11.715118 -202.465396 1752.117561
11.735198 -202.463327 1752.159566
11.756913 -202.461087 1752.201308
11.780164 -202.458689 1752.242746
11.804852 -202.456142 1752.283844
11.830877 -202.453456 1752.324562
11.858139 -202.450642 1752.364862
11.886539 -202.447710 1752.404707
11.915978 -202.444671 1752.444057
11.946354 -202.441534 1752.482874
11.977570 -202.438310 1752.521121
12.009526 -202.435010 1752.558758
12.042121 -202.431643 1752.595747
12.075256 -202.428220 1752.632050
12.108832 -202.424751 1752.667629
12.142749 -202.421247 1752.702445
12.176908 -202.417718 1752.736461
12.211252 -202.414169 1752.769663
12.245777 -202.410601 1752.802070
12.280482 -202.407015 1752.833704
12.315368 -202.403410 1752.864585
12.350434 -202.399786 1752.894736
12.385680 -202.396143 1752.924178
12.421106 -202.392481 1752.952931
12.456711 -202.388801 1752.981018
12.492497 -202.385101 1753.008460
12.528462 -202.381383 1753.035277
12.564606 -202.377647 1753.061492
12.600929 -202.373892 1753.087126
12.637432 -202.370118 1753.112199
12.674114 -202.366325 1753.136734
12.710974 -202.362514 1753.160751
12.748013 -202.358684 1753.184273
12.785231 -202.354835 1753.207319
12.822627 -202.350968 1753.229913
12.860201 -202.347083 1753.252074
12.897953 -202.343179 1753.273825
12.935884 -202.339256 1753.295186
12.973992 -202.335315 1753.316180
13.012278 -202.331356 1753.336827
13.050741 -202.327378 1753.357148
13.089382 -202.323381 1753.377166
13.128200 -202.319366 1753.396900
13.167195 -202.315333 1753.416371
13.206370 -202.311281 1753.435583
13.245726 -202.307210 1753.454532
13.285266 -202.303121 1753.473218
13.324993 -202.299011 1753.491639
13.364908 -202.294883 1753.509793
13.405015 -202.290734 1753.527678
13.445315 -202.286565 1753.545292
13.485812 -202.282376 1753.562634
13.526507 -202.278166 1753.579703
13.567403 -202.273936 1753.596495
13.608503 -202.269684 1753.613010
13.649808 -202.265411 1753.629245
13.691322 -202.261116 1753.645199
13.733046 -202.256799 1753.660871
13.774983 -202.252461 1753.676257
13.817136 -202.248099 1753.691358
13.859507 -202.243716 1753.706170
13.902098 -202.239309 1753.720692
13.944912 -202.234879 1753.734922
13.987952 -202.230426 1753.748859
14.031218 -202.225949 1753.762501
14.074715 -202.221449 1753.775845
14.118444 -202.216924 1753.788891
14.162409 -202.212375 1753.801636
14.206610 -202.207801 1753.814079
14.251051 -202.203202 1753.826218
14.295729 -202.198579 1753.838038
14.340620 -202.193934 1753.849476
14.385695 -202.189269 1753.860455
14.430925 -202.184588 1753.870901
14.476281 -202.179894 1753.880737
14.521735 -202.175190 1753.889888
14.567257 -202.170479 1753.898279
14.612818 -202.165763 1753.905833
14.658391 -202.161046 1753.912476
14.703946 -202.156331 1753.918131
14.749453 -202.151620 1753.922723
14.794885 -202.146917 1753.926177
14.840213 -202.142224 1753.928416
14.885407 -202.137545 1753.929366
14.930438 -202.132883 1753.928951
14.975279 -202.128240 1753.927094
15.019899 -202.123619 1753.923721
15.064271 -202.119024 1753.918756
15.108365 -202.114457 1753.912123
15.152152 -202.109922 1753.903747
15.195604 -202.105421 1753.893552
15.238692 -202.100957 1753.881462
15.281386 -202.096533 1753.867403
15.323659 -202.092153 1753.851297
15.365480 -202.087819 1753.833070
15.406822 -202.083534 1753.812648
15.447622 -202.079305 1753.790027
15.487772 -202.075143 1753.765307
15.527161 -202.071059 1753.738599
15.565676 -202.067065 1753.710013
15.603206 -202.063172 1753.679658
15.639639 -202.059393 1753.647643
15.674862 -202.055739 1753.614079
15.708763 -202.052222 1753.579076
15.741232 -202.048852 1753.542742
15.772155 -202.045642 1753.505187
15.801421 -202.042604 1753.466522
15.828918 -202.039748 1753.426855
15.854534 -202.037087 1753.386297
15.878157 -202.034632 1753.344958
15.899675 -202.032395 1753.302946
15.918976 -202.030388 1753.260372
15.935948 -202.028621 1753.217345
15.950480 -202.027107 1753.173975
15.962458 -202.025858 1753.130372
15.971772 -202.024884 1753.086645
15.978309 -202.024198 1753.042904
15.981958 -202.023811 1752.999259
15.982605 -202.023734 1752.955819
15.980150 -202.023979 1752.912691
15.974624 -202.024542 1752.869943
15.966157 -202.025409 1752.827612
15.954881 -202.026568 1752.785737
15.940927 -202.028004 1752.744355
15.924430 -202.029703 1752.703503
15.905520 -202.031652 1752.663219
15.884330 -202.033838 1752.623540
15.860992 -202.036245 1752.584505
15.835638 -202.038862 1752.546150
15.808400 -202.041674 1752.508514
15.779411 -202.044668 1752.471634
15.748803 -202.047829 1752.435547
15.716709 -202.051144 1752.400291
15.683259 -202.054600 1752.365904
15.648587 -202.058183 1752.332422
15.612824 -202.061879 1752.299885
15.576103 -202.065674 1752.268329
15.538557 -202.069555 1752.237792
15.500316 -202.073508 1752.208311
15.461514 -202.077519 1752.179925
15.422283 -202.081575 1752.152670
15.382753 -202.085662 1752.126582
15.343007 -202.089772 1752.101651
15.303069 -202.093902 1752.077802
15.262959 -202.098050 1752.054962
15.222698 -202.102214 1752.033054
15.182305 -202.106391 1752.012003
15.141800 -202.110580 1751.991735
15.101205 -202.114779 1751.972172
15.060539 -202.118986 1751.953240
15.019822 -202.123197 1751.934864
14.979075 -202.127412 1751.916967
14.938317 -202.131629 1751.899476
14.897570 -202.135844 1751.882313
14.856853 -202.140056 1751.865404
14.816187 -202.144263 1751.848673
14.775591 -202.148462 1751.832044
14.735086 -202.152652 1751.815443
14.694692 -202.156831 1751.798794
14.654430 -202.160996 1751.782022
14.614319 -202.165145 1751.765050
14.574381 -202.169277 1751.747804
14.534634 -202.173388 1751.730208
14.495099 -202.177478 1751.712187
14.455797 -202.181543 1751.693665
14.416729 -202.185584 1751.674613
14.377874 -202.189603 1751.655052
14.339211 -202.193601 1751.635012
14.300718 -202.197582 1751.614519
14.262371 -202.201548 1751.593601
14.224150 -202.205501 1751.572286
14.186032 -202.209443 1751.550601
14.147994 -202.213376 1751.528574
14.110015 -202.217304 1751.506232
14.072072 -202.221227 1751.483604
14.034144 -202.225149 1751.460717
13.996207 -202.229072 1751.437598
13.958240 -202.232998 1751.414275
13.920221 -202.236929 1751.390776
13.882128 -202.240868 1751.367128
13.843937 -202.244817 1751.343358
13.805628 -202.248779 1751.319496
13.767178 -202.252755 1751.295567
13.728565 -202.256747 1751.271600
13.689766 -202.260759 1751.247623
13.650760 -202.264793 1751.223663
13.611524 -202.268850 1751.199747
13.572036 -202.272933 1751.175903
13.532275 -202.277045 1751.152160
13.492229 -202.281186 1751.128571
13.451904 -202.285356 1751.105227
13.411307 -202.289554 1751.082223
13.370446 -202.293780 1751.059652
13.329326 -202.298033 1751.037607
13.287955 -202.302312 1751.016183
13.246340 -202.306616 1750.995474
13.204487 -202.310945 1750.975573
13.162404 -202.315298 1750.956573
13.120097 -202.319674 1750.938569
13.077573 -202.324074 1750.921655
13.034839 -202.328495 1750.905924
12.991902 -202.332937 1750.891471
12.948768 -202.337400 1750.878388
12.905446 -202.341883 1750.866769
12.861941 -202.346385 1750.856710
12.818260 -202.350906 1750.848302
12.774411 -202.355445 1750.841641
12.730400 -202.360001 1750.836819
12.686233 -202.364573 1750.833931
12.641919 -202.369161 1750.833071
12.597463 -202.373764 1750.834331
12.552874 -202.378381 1750.837807
12.508156 -202.383012 1750.843591
12.463323 -202.387656 1750.851770
12.418449 -202.392305 1750.862330
12.373652 -202.396946 1750.875184
12.329050 -202.401567 1750.890248
12.284764 -202.406156 1750.907436
12.240910 -202.410700 1750.926661
12.197610 -202.415188 1750.947839
12.154980 -202.419607 1750.970882
12.113141 -202.423944 1750.995705
12.072212 -202.428188 1751.022223
12.032310 -202.432325 1751.050349
11.993555 -202.436344 1751.079997
11.956067 -202.440232 1751.111082
11.919963 -202.443977 1751.143518
11.885362 -202.447567 1751.177219
11.852385 -202.450989 1751.212098
11.821148 -202.454231 1751.248070
11.791773 -202.457280 1751.285050
11.764376 -202.460125 1751.322951
11.739078 -202.462753 1751.361687
11.715996 -202.465151 1751.401172
11.695251 -202.467307 1751.441321
11.676961 -202.469210 1751.482048
11.661244 -202.470846 1751.523267
11.648220 -202.472204 1751.564891
11.638008 -202.473270 1751.606836
11.675234 -203.177886 1751.870612
11.669273 -203.184780 1751.912561
11.665976 -203.191693 1751.954750
11.665256 -203.198615 1751.997130
11.667023 -203.205540 1752.039652
11.671188 -203.212460 1752.082268
11.677663 -203.219369 1752.124929
11.686360 -203.226259 1752.167584
11.697189 -203.233123 1752.210187
11.710061 -203.239953 1752.252687
11.724889 -203.246742 1752.295035
11.741582 -203.253484 1752.337183
11.760053 -203.260170 1752.379082
11.780212 -203.266793 1752.420683
11.801971 -203.273347 1752.461936
11.825242 -203.279824 1752.502793
11.849934 -203.286216 1752.543205
11.875961 -203.292517 1752.583122
11.903232 -203.298719 1752.622496
11.931659 -203.304814 1752.661279
11.961154 -203.310797 1752.699420
11.991627 -203.316659 1752.736871
12.022990 -203.322392 1752.773583
12.055154 -203.327991 1752.809508
12.088030 -203.333447 1752.844595
12.121530 -203.338754 1752.878796
12.155565 -203.343903 1752.912063
12.190046 -203.348888 1752.944346
12.224913 -203.353707 1752.975624
12.260152 -203.358362 1753.005923
12.295752 -203.362860 1753.035273
12.331705 -203.367204 1753.063703
12.368001 -203.371401 1753.091243
12.404630 -203.375454 1753.117923
12.441582 -203.379369 1753.143772
12.478848 -203.383151 1753.168820
12.516419 -203.386804 1753.193097
12.554283 -203.390334 1753.216633
12.592433 -203.393746 1753.239457
12.630858 -203.397044 1753.261599
12.669548 -203.400233 1753.283089
12.708495 -203.403319 1753.303957
12.747687 -203.406306 1753.324232
12.787117 -203.409199 1753.343944
12.826773 -203.412003 1753.363122
12.866647 -203.414724 1753.381797
12.906728 -203.417365 1753.399998
12.947008 -203.419932 1753.417756
12.987476 -203.422430 1753.435098
13.028122 -203.424864 1753.452057
13.068938 -203.427239 1753.468660
13.109914 -203.429559 1753.484938
13.151039 -203.431829 1753.500921
13.192306 -203.434055 1753.516633
13.233713 -203.436234 1753.532069
13.275262 -203.438364 1753.547216
13.316953 -203.440445 1753.562060
13.358788 -203.442472 1753.576587
13.400768 -203.444444 1753.590783
13.442894 -203.446359 1753.604635
13.485167 -203.448214 1753.618128
13.527588 -203.450007 1753.631250
13.570159 -203.451736 1753.643985
13.612880 -203.453398 1753.656321
13.655752 -203.454992 1753.668244
13.698778 -203.456514 1753.679739
13.741957 -203.457964 1753.690793
13.785291 -203.459338 1753.701393
13.828781 -203.460634 1753.711524
13.872428 -203.461850 1753.721172
13.916234 -203.462984 1753.730324
13.960199 -203.464034 1753.738966
14.004325 -203.464996 1753.747084
14.048612 -203.465870 1753.754665
14.093062 -203.466652 1753.761694
14.137677 -203.467340 1753.768158
14.182456 -203.467933 1753.774042
14.227401 -203.468428 1753.779334
14.272514 -203.468822 1753.784020
14.317795 -203.469113 1753.788085
14.363246 -203.469300 1753.791516
14.408867 -203.469380 1753.794298
14.454656 -203.469350 1753.796417
14.500584 -203.469205 1753.797843
14.546610 -203.468941 1753.798540
14.592694 -203.468552 1753.798476
14.638797 -203.468033 1753.797614
14.684879 -203.467378 1753.795920
14.730900 -203.466582 1753.793360
14.776820 -203.465641 1753.789899
14.822598 -203.464547 1753.785502
14.868196 -203.463297 1753.780135
14.913573 -203.461884 1753.773763
14.958689 -203.460304 1753.766351
15.003505 -203.458551 1753.757865
15.047980 -203.456620 1753.748270
15.092075 -203.454506 1753.737531
15.135749 -203.452202 1753.725614
15.178963 -203.449705 1753.712483
15.221677 -203.447008 1753.698106
15.263851 -203.444106 1753.682446
15.305445 -203.440994 1753.665469
15.346419 -203.437666 1753.647141
15.386733 -203.434118 1753.627427
15.426348 -203.430343 1753.606291
15.465222 -203.426337 1753.583701
15.503318 -203.422094 1753.559620
15.540594 -203.417610 1753.534014
15.577010 -203.412877 1753.506849
15.612527 -203.407893 1753.478093
15.647093 -203.402661 1753.447773
15.680647 -203.397195 1753.415969
15.713127 -203.391510 1753.382765
15.744472 -203.385618 1753.348241
15.774620 -203.379534 1753.312480
15.803511 -203.373273 1753.275565
15.831083 -203.366847 1753.237576
15.857274 -203.360271 1753.198598
15.882024 -203.353558 1753.158712
15.905269 -203.346723 1753.117999
15.926950 -203.339779 1753.076543
15.947005 -203.332741 1753.034426
15.965373 -203.325623 1752.991729
15.981991 -203.318437 1752.948535
15.996799 -203.311199 1752.904926
16.009735 -203.303921 1752.860984
16.020738 -203.296619 1752.816792
16.029746 -203.289305 1752.772431
16.036698 -203.281995 1752.727985
16.041533 -203.274701 1752.683534
16.044189 -203.267438 1752.639162
16.044605 -203.260219 1752.594951
16.042719 -203.253059 1752.550982
16.038470 -203.245971 1752.507338
16.031810 -203.238969 1752.464096
16.022784 -203.232059 1752.421303
16.011475 -203.225247 1752.378993
15.997965 -203.218538 1752.337198
15.982336 -203.211935 1752.295953
15.964672 -203.205444 1752.255291
15.945054 -203.199070 1752.215245
15.923567 -203.192817 1752.175849
15.900291 -203.186690 1752.137137
15.875310 -203.180694 1752.099141
15.848707 -203.174835 1752.061896
15.820563 -203.169115 1752.025435
15.790963 -203.163541 1751.989791
15.759987 -203.158118 1751.954999
15.727720 -203.152849 1751.921090
15.694243 -203.147740 1751.888100
15.659640 -203.142795 1751.856061
15.623992 -203.138020 1751.825008
15.587383 -203.133419 1751.794972
15.549894 -203.128997 1751.765989
15.511610 -203.124759 1751.738092
15.472612 -203.120709 1751.711313
15.432983 -203.116852 1751.685687
15.392805 -203.113193 1751.661247
15.352162 -203.109737 1751.638026
15.311136 -203.106489 1751.616059
15.269809 -203.103453 1751.595378
15.228238 -203.100628 1751.575975
15.186441 -203.098002 1751.557780
15.144434 -203.095563 1751.540720
15.102232 -203.093298 1751.524717
15.059848 -203.091195 1751.509697
15.017299 -203.089241 1751.495584
14.974599 -203.087424 1751.482304
14.931763 -203.085732 1751.469781
14.888806 -203.084152 1751.457939
14.845743 -203.082672 1751.446704
14.802588 -203.081280 1751.436000
14.759357 -203.079962 1751.425751
14.716065 -203.078707 1751.415883
14.672726 -203.077502 1751.406320
14.629355 -203.076335 1751.396987
14.585968 -203.075194 1751.387809
14.542579 -203.074065 1751.378709
14.499203 -203.072937 1751.369614
14.455855 -203.071797 1751.360448
14.412549 -203.070633 1751.351135
14.369302 -203.069432 1751.341600
14.326127 -203.068182 1751.331768
14.283040 -203.066870 1751.321563
14.240053 -203.065486 1751.310920
14.197162 -203.064031 1751.299848
14.154352 -203.062514 1751.288397
14.111609 -203.060943 1751.276617
14.068920 -203.059325 1751.264559
14.026269 -203.057670 1751.252271
13.983642 -203.055986 1751.239806
13.941026 -203.054280 1751.227211
13.898406 -203.052562 1751.214538
13.855768 -203.050839 1751.201837
13.813098 -203.049120 1751.189157
13.770381 -203.047413 1751.176548
13.727604 -203.045727 1751.164061
13.684752 -203.044069 1751.151746
13.641810 -203.042448 1751.139653
13.598766 -203.040872 1751.127831
13.555604 -203.039350 1751.116331
13.512310 -203.037889 1751.105203
13.468870 -203.036499 1751.094497
13.425270 -203.035186 1751.084263
13.381496 -203.033961 1751.074550
13.337534 -203.032830 1751.065410
13.293370 -203.031803 1751.056892
13.249015 -203.030887 1751.049049
13.204492 -203.030091 1751.041935
13.159825 -203.029425 1751.035605
13.115040 -203.028896 1751.030112
13.070161 -203.028514 1751.025511
13.025212 -203.028287 1751.021856
12.980217 -203.028223 1751.019201
12.935201 -203.028331 1751.017601
12.890189 -203.028621 1751.017109
12.845205 -203.029100 1751.017781
12.800274 -203.029777 1751.019670
12.755419 -203.030661 1751.022831
12.710666 -203.031761 1751.027318
12.666039 -203.033084 1751.033184
12.621562 -203.034641 1751.040485
12.577259 -203.036439 1751.049275
12.533156 -203.038488 1751.059608
12.489277 -203.040795 1751.071537
12.445646 -203.043370 1751.085118
12.402287 -203.046220 1751.100405
12.359226 -203.049356 1751.117451
12.316511 -203.052778 1751.136274
12.274241 -203.056478 1751.156819
12.232521 -203.060444 1751.179020
12.191456 -203.064664 1751.202813
12.151152 -203.069127 1751.228131
12.111712 -203.073821 1751.254911
12.073241 -203.078735 1751.283086
12.035846 -203.083857 1751.312592
11.999630 -203.089177 1751.343364
11.964699 -203.094681 1751.375336
11.931157 -203.100360 1751.408444
11.899110 -203.106201 1751.442622
11.868662 -203.112192 1751.477805
11.839918 -203.118324 1751.513929
11.812984 -203.124583 1751.550928
11.787964 -203.130959 1751.588737
11.764963 -203.137439 1751.627291
11.744086 -203.144014 1751.666525
11.725438 -203.150670 1751.706373
11.709124 -203.157397 1751.746771
11.695249 -203.164183 1751.787654
11.683917 -203.171016 1751.828956
11.675234 -203.177886 1751.870612
11.794260 -203.812033 1751.993303
11.790740 -203.822825 1752.027642
11.790175 -203.833914 1752.062288
11.792444 -203.845275 1752.097196
11.797424 -203.856887 1752.132319
11.804996 -203.868726 1752.167610
11.815039 -203.880769 1752.203022
11.827430 -203.892993 1752.238510
11.842049 -203.905375 1752.274026
11.858775 -203.917892 1752.309524
11.877487 -203.930521 1752.344958
11.898064 -203.943239 1752.380280
11.920384 -203.956023 1752.415445
11.944327 -203.968849 1752.450405
11.969772 -203.981695 1752.485115
11.996597 -203.994538 1752.519527
12.024681 -204.007355 1752.553595
12.053904 -204.020122 1752.587273
12.084144 -204.032817 1752.620513
12.115280 -204.045417 1752.653270
12.147191 -204.057898 1752.685497
12.179756 -204.070237 1752.717147
12.212854 -204.082412 1752.748174
12.246364 -204.094399 1752.778531
12.280164 -204.106176 1752.808172
12.314135 -204.117719 1752.837049
12.348157 -204.129006 1752.865119
12.382182 -204.140031 1752.892374
12.416217 -204.150803 1752.918837
12.450276 -204.161331 1752.944535
12.484368 -204.171623 1752.969492
12.518506 -204.181689 1752.993734
12.552699 -204.191537 1753.017287
12.586961 -204.201176 1753.040176
12.621301 -204.210615 1753.062427
12.655732 -204.219864 1753.084064
12.690264 -204.228931 1753.105114
12.724908 -204.237824 1753.125601
12.759677 -204.246554 1753.145552
12.794581 -204.255128 1753.164991
12.829632 -204.263557 1753.183945
12.864840 -204.271847 1753.202438
12.900218 -204.280010 1753.220496
12.935776 -204.288053 1753.238144
12.971525 -204.295985 1753.255409
13.007478 -204.303816 1753.272314
13.043644 -204.311554 1753.288887
13.080037 -204.319209 1753.305152
13.116665 -204.326788 1753.321134
13.153542 -204.334302 1753.336860
13.190679 -204.341758 1753.352354
13.228085 -204.349167 1753.367642
13.265774 -204.356536 1753.382749
13.303753 -204.363873 1753.397695
13.342017 -204.371170 1753.412458
13.380554 -204.378414 1753.427000
13.419354 -204.385594 1753.441284
13.458403 -204.392695 1753.455274
13.497691 -204.399706 1753.468932
13.537207 -204.406613 1753.482221
13.576938 -204.413404 1753.495103
13.616873 -204.420066 1753.507542
13.657001 -204.426587 1753.519500
13.697310 -204.432954 1753.530941
13.737789 -204.439154 1753.541826
13.778426 -204.445174 1753.552120
13.819209 -204.451002 1753.561784
13.860127 -204.456625 1753.570781
13.901169 -204.462031 1753.579075
13.942322 -204.467205 1753.586628
13.983576 -204.472137 1753.593403
14.024919 -204.476813 1753.599363
14.066339 -204.481220 1753.604470
14.107826 -204.485346 1753.608688
14.149366 -204.489178 1753.611979
14.190949 -204.492703 1753.614306
14.232564 -204.495909 1753.615632
14.274198 -204.498783 1753.615920
14.315840 -204.501312 1753.615133
14.357479 -204.503484 1753.613233
14.399104 -204.505285 1753.610183
14.440701 -204.506704 1753.605946
14.482261 -204.507726 1753.600486
14.523762 -204.508346 1753.593781
14.565166 -204.508564 1753.585848
14.606429 -204.508386 1753.576708
14.647510 -204.507813 1753.566380
14.688368 -204.506852 1753.554885
14.728961 -204.505504 1753.542243
14.769247 -204.503773 1753.528475
14.809183 -204.501665 1753.513600
14.848729 -204.499181 1753.497640
14.887842 -204.496326 1753.480614
14.926481 -204.493104 1753.462542
14.964604 -204.489518 1753.443446
15.002168 -204.485573 1753.423344
15.039133 -204.481271 1753.402258
15.075456 -204.476616 1753.380208
15.111096 -204.471613 1753.357215
15.146010 -204.466265 1753.333297
15.180157 -204.460575 1753.308477
15.213495 -204.454548 1753.282773
15.245983 -204.448187 1753.256207
15.277578 -204.441496 1753.228798
15.308238 -204.434479 1753.200567
15.337923 -204.427138 1753.171535
15.366589 -204.419479 1753.141721
15.394196 -204.411505 1753.111145
15.420703 -204.403219 1753.079829
15.446093 -204.394628 1753.047795
15.470366 -204.385738 1753.015065
15.493519 -204.376559 1752.981662
15.515552 -204.367095 1752.947611
15.536462 -204.357356 1752.912934
15.556249 -204.347349 1752.877654
15.574912 -204.337080 1752.841794
15.592448 -204.326557 1752.805379
15.608857 -204.315788 1752.768430
15.624137 -204.304779 1752.730972
15.638288 -204.293539 1752.693026
15.651306 -204.282075 1752.654618
15.663192 -204.270393 1752.615769
15.673944 -204.258502 1752.576503
15.683560 -204.246408 1752.536843
15.692040 -204.234119 1752.496813
15.699381 -204.221643 1752.456435
15.705583 -204.208986 1752.415733
15.710642 -204.196159 1752.374736
15.714547 -204.183179 1752.333503
15.717287 -204.170065 1752.292097
15.718849 -204.156837 1752.250582
15.719219 -204.143516 1752.209022
15.718387 -204.130120 1752.167482
15.716338 -204.116670 1752.126025
15.713061 -204.103185 1752.084716
15.708544 -204.089686 1752.043619
15.702773 -204.076191 1752.002797
15.695737 -204.062721 1751.962315
15.687422 -204.049295 1751.922237
15.677817 -204.035933 1751.882628
15.666908 -204.022656 1751.843550
15.654684 -204.009481 1751.805069
15.641131 -203.996430 1751.767248
15.626238 -203.983522 1751.730152
15.609992 -203.970777 1751.693844
15.592380 -203.958215 1751.658389
15.573390 -203.945855 1751.623850
15.553010 -203.933717 1751.590293
15.531226 -203.921821 1751.557780
15.508027 -203.910186 1751.526377
15.483399 -203.898833 1751.496147
15.457352 -203.887774 1751.467128
15.429938 -203.877006 1751.439298
15.401220 -203.866522 1751.412626
15.371259 -203.856317 1751.387080
15.340117 -203.846385 1751.362631
15.307854 -203.836720 1751.339246
15.274533 -203.827316 1751.316894
15.240214 -203.818167 1751.295545
15.204959 -203.809268 1751.275167
15.168831 -203.800612 1751.255730
15.131889 -203.792194 1751.237201
15.094195 -203.784008 1751.219550
15.055812 -203.776047 1751.202746
15.016799 -203.768307 1751.186758
14.977220 -203.760780 1751.171554
14.937135 -203.753462 1751.157104
14.896605 -203.746346 1751.143376
14.855692 -203.739426 1751.130340
14.814458 -203.732697 1751.117963
14.772964 -203.726152 1751.106216
14.731271 -203.719786 1751.095066
14.689440 -203.713593 1751.084483
14.647534 -203.707567 1751.074436
14.605609 -203.701703 1751.064896
14.563687 -203.695999 1751.055855
14.521773 -203.690456 1751.047315
14.479872 -203.685076 1751.039277
14.437989 -203.679858 1751.031743
14.396129 -203.674805 1751.024714
14.354298 -203.669916 1751.018192
14.312501 -203.665192 1751.012178
14.270743 -203.660635 1751.006674
14.229028 -203.656245 1751.001682
14.187362 -203.652023 1750.997203
14.145751 -203.647970 1750.993239
14.104198 -203.644087 1750.989790
14.062710 -203.640374 1750.986860
14.021292 -203.636833 1750.984449
13.979948 -203.633464 1750.982559
13.938683 -203.630268 1750.981191
13.897504 -203.627246 1750.980347
13.856414 -203.624399 1750.980029
13.815420 -203.621728 1750.980238
13.774526 -203.619233 1750.980976
13.733737 -203.616915 1750.982244
13.693058 -203.614776 1750.984044
13.652495 -203.612815 1750.986378
13.612053 -203.611034 1750.989246
13.571736 -203.609434 1750.992651
13.531550 -203.608016 1750.996593
13.491501 -203.606780 1751.001076
13.451588 -203.605727 1751.006101
13.411801 -203.604860 1751.011676
13.372125 -203.604179 1751.017811
13.332545 -203.603688 1751.024514
13.293047 -203.603387 1751.031794
13.253617 -203.603279 1751.039660
13.214238 -203.603365 1751.048121
13.174898 -203.603648 1751.057185
13.135581 -203.604129 1751.066862
13.096274 -203.604810 1751.077160
13.056960 -203.605693 1751.088089
13.017626 -203.606780 1751.099656
12.978257 -203.608073 1751.111872
12.938839 -203.609573 1751.124744
12.899356 -203.611283 1751.138282
12.859795 -203.613204 1751.152494
12.820141 -203.615339 1751.167390
12.780379 -203.617688 1751.182978
12.740494 -203.620255 1751.199267
12.700472 -203.623040 1751.216267
12.660299 -203.626046 1751.233985
12.619960 -203.629275 1751.252430
12.579440 -203.632728 1751.271613
12.538725 -203.636407 1751.291540
12.497823 -203.640315 1751.312218
12.456839 -203.644455 1751.333635
12.415905 -203.648830 1751.355775
12.375153 -203.653445 1751.378622
12.334713 -203.658302 1751.402159
12.294719 -203.663405 1751.426371
12.255301 -203.668759 1751.451242
12.216590 -203.674366 1751.476755
12.178719 -203.680230 1751.502896
12.141818 -203.686356 1751.529647
12.106020 -203.692746 1751.556992
12.071456 -203.699404 1751.584917
12.038257 -203.706335 1751.613403
12.006555 -203.713540 1751.642437
11.976482 -203.721025 1751.672001
11.948169 -203.728793 1751.702080
11.921747 -203.736848 1751.732657
11.897349 -203.745192 1751.763717
11.875105 -203.753830 1751.795244
11.855148 -203.762766 1751.827221
11.837609 -203.772003 1751.859632
11.822618 -203.781544 1751.892462
11.810309 -203.791394 1751.925695
11.800812 -203.801556 1751.959314
11.794260 -203.812033 1751.993303
11.958414 -204.719802 1751.844364
11.960125 -204.736887 1751.881018
11.963410 -204.754080 1751.917495
11.968230 -204.771366 1751.953769
11.974547 -204.788727 1751.989812
11.982320 -204.806146 1752.025599
11.991512 -204.823607 1752.061103
12.002082 -204.841092 1752.096298
12.013992 -204.858585 1752.131158
12.027203 -204.876069 1752.165656
12.041676 -204.893527 1752.199766
12.057372 -204.910942 1752.233462
12.074252 -204.928298 1752.266716
12.092276 -204.945577 1752.299504
12.111406 -204.962762 1752.331797
12.131602 -204.979837 1752.363571
12.152826 -204.996785 1752.394799
12.175039 -205.013589 1752.425454
12.198201 -205.030233 1752.455510
12.222273 -205.046698 1752.484940
12.247217 -205.062969 1752.513719
12.272993 -205.079028 1752.541820
12.299563 -205.094859 1752.569216
12.326887 -205.110445 1752.595881
12.354925 -205.125768 1752.621790
12.383641 -205.140813 1752.646914
12.412993 -205.155562 1752.671229
12.442944 -205.169999 1752.694709
12.473466 -205.184121 1752.717354
12.504540 -205.197934 1752.739184
12.536147 -205.211446 1752.760219
12.568270 -205.224663 1752.780481
12.600889 -205.237594 1752.799989
12.633985 -205.250246 1752.818764
12.667541 -205.262625 1752.836827
12.701538 -205.274739 1752.854199
12.735957 -205.286596 1752.870900
12.770779 -205.298201 1752.886950
12.805986 -205.309564 1752.902371
12.841559 -205.320690 1752.917183
12.877479 -205.331587 1752.931406
12.913729 -205.342263 1752.945062
12.950290 -205.352724 1752.958170
12.987142 -205.362978 1752.970751
13.024268 -205.373033 1752.982826
13.061648 -205.382894 1752.994416
13.099264 -205.392570 1753.005541
13.137098 -205.402068 1753.016222
13.175131 -205.411394 1753.026479
13.213344 -205.420557 1753.036332
13.251719 -205.429564 1753.045804
13.290238 -205.438421 1753.054913
13.328881 -205.447136 1753.063681
13.367636 -205.455708 1753.072109
13.406498 -205.464128 1753.080180
13.445462 -205.472388 1753.087876
13.484521 -205.480479 1753.095178
13.523672 -205.488390 1753.102067
13.562908 -205.496113 1753.108525
13.602224 -205.503639 1753.114534
13.641615 -205.510958 1753.120074
13.681075 -205.518062 1753.125128
13.720600 -205.524941 1753.129677
13.760183 -205.531586 1753.133702
13.799821 -205.537988 1753.137185
13.839506 -205.544137 1753.140107
13.879235 -205.550025 1753.142450
13.919001 -205.555643 1753.144196
13.958799 -205.560980 1753.145325
13.998625 -205.566029 1753.145819
14.038472 -205.570779 1753.145660
14.078336 -205.575222 1753.144830
14.118211 -205.579348 1753.143309
14.158091 -205.583149 1753.141079
14.197972 -205.586615 1753.138122
14.237849 -205.589737 1753.134419
14.277715 -205.592506 1753.129951
14.317565 -205.594912 1753.124701
14.357395 -205.596947 1753.118649
14.397199 -205.598601 1753.111778
14.436972 -205.599866 1753.104068
14.476707 -205.600731 1753.095501
14.516395 -205.601189 1753.086061
14.555999 -205.601233 1753.075747
14.595473 -205.600861 1753.064560
14.634774 -205.600066 1753.052503
14.673858 -205.598845 1753.039577
14.712679 -205.597193 1753.025784
14.751194 -205.595106 1753.011125
14.789358 -205.592579 1752.995604
14.827126 -205.589608 1752.979222
14.864455 -205.586187 1752.961980
14.901300 -205.582313 1752.943881
14.937617 -205.577982 1752.924926
14.973361 -205.573188 1752.905118
15.008488 -205.567927 1752.884458
15.042953 -205.562194 1752.862948
15.076713 -205.555986 1752.840590
15.109722 -205.549298 1752.817386
15.141937 -205.542124 1752.793339
15.173313 -205.534462 1752.768449
15.203805 -205.526305 1752.742718
15.233370 -205.517650 1752.716149
15.261962 -205.508493 1752.688744
15.289538 -205.498827 1752.660504
15.316054 -205.488651 1752.631432
15.341464 -205.477957 1752.601529
15.365724 -205.466743 1752.570796
15.388791 -205.455004 1752.539237
15.410625 -205.442741 1752.506864
15.431212 -205.429975 1752.473728
15.450539 -205.416732 1752.439886
15.468594 -205.403037 1752.405397
15.485366 -205.388915 1752.370319
15.500844 -205.374393 1752.334711
15.515015 -205.359495 1752.298630
15.527868 -205.344246 1752.262136
15.539391 -205.328673 1752.225285
15.549572 -205.312800 1752.188137
15.558401 -205.296654 1752.150749
15.565864 -205.280258 1752.113180
15.571951 -205.263640 1752.075488
15.576650 -205.246823 1752.037731
15.579949 -205.229834 1751.999968
15.581836 -205.212698 1751.962256
15.582300 -205.195441 1751.924654
15.581329 -205.178087 1751.887221
15.578911 -205.160662 1751.850014
15.575035 -205.143191 1751.813091
15.569690 -205.125701 1751.776512
15.562862 -205.108216 1751.740333
15.554541 -205.090762 1751.704614
15.544715 -205.073363 1751.669412
15.533373 -205.056047 1751.634786
15.520510 -205.038834 1751.600786
15.506166 -205.021737 1751.567425
15.490392 -205.004760 1751.534703
15.473240 -204.987912 1751.502621
15.454762 -204.971197 1751.471179
15.435009 -204.954623 1751.440377
15.414033 -204.938196 1751.410215
15.391887 -204.921922 1751.380695
15.368620 -204.905809 1751.351815
15.344286 -204.889861 1751.323578
15.318936 -204.874086 1751.295983
15.292622 -204.858490 1751.269030
15.265396 -204.843080 1751.242720
15.237308 -204.827861 1751.217053
15.208412 -204.812841 1751.192030
15.178758 -204.798026 1751.167650
15.148399 -204.783422 1751.143915
15.117386 -204.769036 1751.120825
15.085770 -204.754874 1751.098379
15.053605 -204.740942 1751.076579
15.020941 -204.727248 1751.055425
14.987829 -204.713797 1751.034917
14.954323 -204.700595 1751.015055
14.920473 -204.687650 1750.995841
14.886332 -204.674968 1750.977273
14.851933 -204.662550 1750.959348
14.817286 -204.650392 1750.942051
14.782396 -204.638488 1750.925370
14.747268 -204.626831 1750.909289
14.711908 -204.615416 1750.893794
14.676320 -204.604237 1750.878871
14.640511 -204.593288 1750.864506
14.604485 -204.582563 1750.850684
14.568248 -204.572056 1750.837392
14.531805 -204.561761 1750.824615
14.495162 -204.551672 1750.812338
14.458324 -204.541785 1750.800548
14.421297 -204.532091 1750.789231
14.384085 -204.522586 1750.778371
14.346694 -204.513264 1750.767955
14.309130 -204.504119 1750.757969
14.271397 -204.495144 1750.748398
14.233502 -204.486335 1750.739228
14.195449 -204.477684 1750.730445
14.157244 -204.469187 1750.722035
14.118893 -204.460837 1750.713982
14.080400 -204.452628 1750.706274
14.041771 -204.444555 1750.698896
14.003011 -204.436614 1750.691840
13.964128 -204.428815 1750.685123
13.925129 -204.421169 1750.678771
13.886021 -204.413688 1750.672807
13.846812 -204.406386 1750.667255
13.807509 -204.399273 1750.662141
13.768119 -204.392363 1750.657487
13.728649 -204.385666 1750.653320
13.689107 -204.379195 1750.649663
13.649500 -204.372963 1750.646540
13.609836 -204.366981 1750.643976
13.570121 -204.361262 1750.641996
13.530363 -204.355817 1750.640623
13.490570 -204.350659 1750.639881
13.450748 -204.345799 1750.639796
13.410905 -204.341250 1750.640392
13.371048 -204.337025 1750.641693
13.331185 -204.333134 1750.643723
13.291323 -204.329590 1750.646506
13.251469 -204.326406 1750.650068
13.211630 -204.323593 1750.654432
13.171814 -204.321163 1750.659623
13.132029 -204.319129 1750.665664
13.092281 -204.317503 1750.672581
13.052597 -204.316293 1750.680386
13.013017 -204.315506 1750.689082
12.973580 -204.315148 1750.698673
12.934328 -204.315227 1750.709163
12.895301 -204.315748 1750.720554
12.856540 -204.316718 1750.732850
12.818084 -204.318143 1750.746054
12.779975 -204.320029 1750.760170
12.742253 -204.322384 1750.775202
12.704958 -204.325214 1750.791151
12.668131 -204.328524 1750.808022
12.631812 -204.332322 1750.825819
12.596042 -204.336614 1750.844543
12.560861 -204.341407 1750.864200
12.526311 -204.346706 1750.884792
12.492430 -204.352518 1750.906322
12.459260 -204.358851 1750.928794
12.426842 -204.365709 1750.952212
12.395215 -204.373100 1750.976578
12.364420 -204.381030 1751.001896
12.334498 -204.389506 1751.028169
12.305489 -204.398533 1751.055399
12.277428 -204.408105 1751.083565
12.250343 -204.418204 1751.112619
12.224264 -204.428813 1751.142515
12.199219 -204.439913 1751.173205
12.175238 -204.451485 1751.204642
12.152349 -204.463512 1751.236778
12.130582 -204.475975 1751.269568
12.109964 -204.488856 1751.302962
12.090526 -204.502136 1751.336914
12.072296 -204.515798 1751.371377
12.055304 -204.529823 1751.406303
12.039577 -204.544193 1751.441645
12.025145 -204.558889 1751.477357
12.012037 -204.573894 1751.513390
12.000282 -204.589189 1751.549697
11.989908 -204.604756 1751.586232
11.980946 -204.620576 1751.622946
11.973423 -204.636632 1751.659793
11.967368 -204.652905 1751.696726
11.962811 -204.669377 1751.733696
11.959780 -204.686029 1751.770658
11.958305 -204.702843 1751.807563
11.958414 -204.719802 1751.844364
11.906828 -205.519461 1751.384342
11.911273 -205.540336 1751.417940
11.917131 -205.561226 1751.451169
11.924360 -205.582119 1751.484021
11.932921 -205.603005 1751.516491
11.942772 -205.623874 1751.548571
11.953873 -205.644713 1751.580255
11.966184 -205.665513 1751.611535
11.979664 -205.686263 1751.642405
11.994272 -205.706950 1751.672859
12.009968 -205.727566 1751.702888
12.026711 -205.748099 1751.732487
12.044461 -205.768538 1751.761649
12.063177 -205.788871 1751.790367
12.082819 -205.809090 1751.818633
12.103346 -205.829181 1751.846442
12.124718 -205.849136 1751.873786
12.146893 -205.868942 1751.900659
12.169832 -205.888589 1751.927054
12.193494 -205.908067 1751.952964
12.217838 -205.927363 1751.978382
12.242824 -205.946468 1752.003301
12.268412 -205.965371 1752.027715
12.294560 -205.984060 1752.051617
12.321229 -206.002525 1752.074999
12.348392 -206.020760 1752.097860
12.376037 -206.038763 1752.120199
12.404154 -206.056532 1752.142017
12.432732 -206.074067 1752.163315
12.461758 -206.091365 1752.184093
12.491224 -206.108425 1752.204353
12.521116 -206.125247 1752.224094
12.551425 -206.141828 1752.243318
12.582139 -206.158167 1752.262025
12.613248 -206.174262 1752.280215
12.644740 -206.190113 1752.297891
12.676604 -206.205717 1752.315052
12.708830 -206.221074 1752.331698
12.741405 -206.236182 1752.347832
12.774320 -206.251039 1752.363453
12.807563 -206.265644 1752.378562
12.841124 -206.279996 1752.393159
12.874990 -206.294093 1752.407247
12.909152 -206.307934 1752.420824
12.943598 -206.321517 1752.433892
12.978317 -206.334841 1752.446452
13.013298 -206.347904 1752.458504
13.048530 -206.360706 1752.470048
13.084002 -206.373244 1752.481087
13.119703 -206.385518 1752.491620
13.155624 -206.397525 1752.501646
13.191758 -206.409262 1752.511163
13.228102 -206.420726 1752.520167
13.264649 -206.431915 1752.528654
13.301396 -206.442825 1752.536619
13.338337 -206.453452 1752.544059
13.375467 -206.463794 1752.550971
13.412782 -206.473848 1752.557349
13.450276 -206.483610 1752.563191
13.487944 -206.493077 1752.568492
13.525782 -206.502246 1752.573249
13.563785 -206.511114 1752.577457
13.601947 -206.519678 1752.581113
13.640264 -206.527935 1752.584213
13.678731 -206.535880 1752.586753
13.717343 -206.543513 1752.588729
13.756094 -206.550828 1752.590138
13.794981 -206.557823 1752.590974
13.833998 -206.564495 1752.591235
13.873140 -206.570841 1752.590917
13.912402 -206.576857 1752.590015
13.951780 -206.582541 1752.588526
13.991267 -206.587889 1752.586446
14.030861 -206.592898 1752.583771
14.070555 -206.597565 1752.580497
14.110344 -206.601887 1752.576621
14.150224 -206.605860 1752.572137
14.190190 -206.609482 1752.567044
14.230233 -206.612748 1752.561334
14.270320 -206.615645 1752.554998
14.310410 -206.618159 1752.548021
14.350461 -206.620275 1752.540389
14.390431 -206.621976 1752.532089
14.430279 -206.623247 1752.523106
14.469963 -206.624074 1752.513426
14.509441 -206.624441 1752.503036
14.548672 -206.624332 1752.491921
14.587614 -206.623732 1752.480068
14.626224 -206.622627 1752.467463
14.664462 -206.621000 1752.454092
14.702286 -206.618836 1752.439940
14.739654 -206.616121 1752.424994
14.776524 -206.612838 1752.409241
14.812855 -206.608973 1752.392665
14.848605 -206.604509 1752.375253
14.883732 -206.599433 1752.356992
14.918195 -206.593727 1752.337867
14.951952 -206.587378 1752.317864
14.984960 -206.580370 1752.296970
15.017179 -206.572688 1752.275170
15.048567 -206.564315 1752.252450
15.079082 -206.555238 1752.228797
15.108682 -206.545440 1752.204197
15.137326 -206.534906 1752.178635
15.164972 -206.523621 1752.152099
15.191578 -206.511570 1752.124573
15.217103 -206.498737 1752.096044
15.241507 -206.485117 1752.066513
15.264758 -206.470741 1752.036042
15.286827 -206.455651 1752.004709
15.307686 -206.439889 1751.972593
15.327304 -206.423498 1751.939772
15.345654 -206.406519 1751.906322
15.362705 -206.388993 1751.872324
15.378428 -206.370964 1751.837855
15.392794 -206.352472 1751.802992
15.405774 -206.333560 1751.767814
15.417339 -206.314270 1751.732399
15.427460 -206.294644 1751.696826
15.436106 -206.274723 1751.661171
15.443250 -206.254549 1751.625514
15.448862 -206.234165 1751.589933
15.452913 -206.213611 1751.554504
15.455373 -206.192932 1751.519308
15.456213 -206.172167 1751.484421
15.455405 -206.151359 1751.449922
15.452918 -206.130550 1751.415889
15.448724 -206.109782 1751.382399
15.442794 -206.089096 1751.349532
15.435097 -206.068536 1751.317365
15.425606 -206.048142 1751.285976
15.414291 -206.027956 1751.255443
15.401123 -206.008021 1751.225845
15.386112 -205.988361 1751.197219
15.369332 -205.968971 1751.169537
15.350869 -205.949843 1751.142762
15.330804 -205.930969 1751.116857
15.309221 -205.912342 1751.091786
15.286203 -205.893953 1751.067513
15.261833 -205.875794 1751.044001
15.236194 -205.857858 1751.021213
15.209370 -205.840135 1750.999114
15.181444 -205.822619 1750.977665
15.152498 -205.805302 1750.956832
15.122617 -205.788174 1750.936577
15.091882 -205.771229 1750.916864
15.060378 -205.754458 1750.897657
15.028187 -205.737854 1750.878918
14.995392 -205.721408 1750.860612
14.962077 -205.705112 1750.842702
14.928325 -205.688958 1750.825151
14.894219 -205.672939 1750.807923
14.859841 -205.657047 1750.790981
14.825276 -205.641272 1750.774290
14.790607 -205.625608 1750.757811
14.755916 -205.610047 1750.741510
14.721286 -205.594580 1750.725349
14.686801 -205.579199 1750.709292
14.652517 -205.563900 1750.693315
14.618423 -205.548685 1750.677426
14.584498 -205.533558 1750.661637
14.550723 -205.518524 1750.645960
14.517076 -205.503586 1750.630408
14.483538 -205.488748 1750.614993
14.450088 -205.474014 1750.599727
14.416705 -205.459388 1750.584622
14.383370 -205.444874 1750.569690
14.350061 -205.430475 1750.554945
14.316759 -205.416196 1750.540397
14.283443 -205.402041 1750.526059
14.250093 -205.388014 1750.511944
14.216688 -205.374118 1750.498063
14.183208 -205.360357 1750.484430
14.149633 -205.346735 1750.471055
14.115942 -205.333257 1750.457952
14.082114 -205.319926 1750.445132
14.048130 -205.306747 1750.432609
14.013969 -205.293722 1750.420393
13.979610 -205.280856 1750.408498
13.945034 -205.268153 1750.396935
13.910219 -205.255617 1750.385717
13.875146 -205.243252 1750.374855
13.839794 -205.231061 1750.364364
13.804145 -205.219050 1750.354254
13.768197 -205.207230 1750.344547
13.731965 -205.195619 1750.335269
13.695458 -205.184235 1750.326445
13.658688 -205.173095 1750.318100
13.621669 -205.162215 1750.310261
13.584410 -205.151614 1750.302953
13.546925 -205.141308 1750.296201
13.509224 -205.131315 1750.290031
13.471320 -205.121652 1750.284469
13.433224 -205.112337 1750.279540
13.394948 -205.103386 1750.275270
13.356504 -205.094817 1750.271685
13.317903 -205.086648 1750.268809
13.279158 -205.078895 1750.266669
13.240280 -205.071577 1750.265290
13.201281 -205.064709 1750.264698
13.162172 -205.058310 1750.264919
13.122966 -205.052397 1750.265977
13.083673 -205.046987 1750.267899
13.044307 -205.042097 1750.270710
13.004878 -205.037745 1750.274436
12.965399 -205.033949 1750.279102
12.925881 -205.030724 1750.284734
12.886358 -205.028085 1750.291345
12.846886 -205.026043 1750.298937
12.807522 -205.024606 1750.307510
12.768326 -205.023785 1750.317063
12.729355 -205.023590 1750.327597
12.690667 -205.024029 1750.339112
12.652320 -205.025113 1750.351608
12.614373 -205.026851 1750.365084
12.576883 -205.029254 1750.379541
12.539908 -205.032330 1750.394980
12.503507 -205.036090 1750.411399
12.467738 -205.040543 1750.428799
12.432659 -205.045700 1750.447181
12.398327 -205.051569 1750.466543
12.364801 -205.058161 1750.486887
12.332139 -205.065485 1750.508211
12.300399 -205.073551 1750.530517
12.269640 -205.082368 1750.553805
12.239918 -205.091947 1750.578073
12.211293 -205.102298 1750.603323
12.183822 -205.113429 1750.629555
12.157553 -205.125341 1750.656755
12.132503 -205.138007 1750.684873
12.108683 -205.151393 1750.713851
12.086102 -205.165467 1750.743631
12.064772 -205.180196 1750.774154
12.044704 -205.195545 1750.805363
12.025907 -205.211483 1750.837198
12.008393 -205.227975 1750.869602
11.992172 -205.244990 1750.902517
11.977255 -205.262493 1750.935884
11.963653 -205.280453 1750.969645
11.951376 -205.298834 1751.003743
11.940434 -205.317606 1751.038118
11.930839 -205.336733 1751.072712
11.922601 -205.356184 1751.107468
11.915731 -205.375926 1751.142328
11.910239 -205.395924 1751.177232
11.906136 -205.416147 1751.212123
11.903433 -205.436560 1751.246942
11.902139 -205.457131 1751.281632
11.902267 -205.477827 1751.316134
11.903826 -205.498615 1751.350390
11.906828 -205.519461 1751.384342
11.834846 -206.441297 1751.026360
11.838885 -206.463480 1751.058163
11.844148 -206.485775 1751.089787
11.850614 -206.508159 1751.121205
11.858261 -206.530612 1751.152393
11.867067 -206.553112 1751.183325
11.877011 -206.575639 1751.213975
11.888071 -206.598171 1751.244319
11.900226 -206.620687 1751.274332
11.913454 -206.643166 1751.303987
11.927733 -206.665588 1751.333260
11.943042 -206.687929 1751.362125
11.959359 -206.710171 1751.390558
11.976662 -206.732291 1751.418532
11.994931 -206.754269 1751.446024
12.014143 -206.776082 1751.473006
12.034277 -206.797711 1751.499454
12.055310 -206.819134 1751.525343
12.077223 -206.840330 1751.550648
12.099992 -206.861278 1751.575343
12.123597 -206.881957 1751.599402
12.148015 -206.902345 1751.622802
12.173226 -206.922422 1751.645515
12.199207 -206.942166 1751.667518
12.225938 -206.961556 1751.688785
12.253395 -206.980571 1751.709290
12.281558 -206.999191 1751.729008
12.310405 -207.017399 1751.747924
12.339909 -207.035199 1751.766048
12.370047 -207.052594 1751.783393
12.400791 -207.069591 1751.799975
12.432117 -207.086193 1751.815807
12.464000 -207.102405 1751.830904
12.496413 -207.118232 1751.845280
12.529331 -207.133679 1751.858948
12.562729 -207.148751 1751.871925
12.596581 -207.163452 1751.884223
12.630863 -207.177787 1751.895857
12.665547 -207.191761 1751.906841
12.700609 -207.205379 1751.917190
12.736024 -207.218645 1751.926918
12.771765 -207.231564 1751.936038
12.807808 -207.244142 1751.944566
12.844127 -207.256382 1751.952516
12.880696 -207.268289 1751.959901
12.917490 -207.279870 1751.966736
12.954484 -207.291127 1751.973036
12.991651 -207.302066 1751.978815
13.028967 -207.312691 1751.984086
13.066406 -207.323009 1751.988865
13.103942 -207.333022 1751.993164
13.141551 -207.342736 1751.997000
13.179212 -207.352154 1752.000381
13.216920 -207.361275 1752.003307
13.254673 -207.370094 1752.005772
13.292471 -207.378609 1752.007774
13.330311 -207.386817 1752.009308
13.368191 -207.394715 1752.010370
13.406110 -207.402301 1752.010957
13.444066 -207.409571 1752.011065
13.482057 -207.416522 1752.010690
13.520082 -207.423151 1752.009828
13.558138 -207.429456 1752.008474
13.596223 -207.435433 1752.006626
13.634337 -207.441080 1752.004280
13.672477 -207.446393 1752.001430
13.710642 -207.451370 1751.998075
13.748829 -207.456008 1751.994209
13.787038 -207.460303 1751.989829
13.825265 -207.464253 1751.984931
13.863511 -207.467855 1751.979511
13.901771 -207.471106 1751.973565
13.940046 -207.474003 1751.967090
13.978333 -207.476543 1751.960081
14.016630 -207.478723 1751.952535
14.054936 -207.480540 1751.944447
14.093249 -207.481991 1751.935815
14.131566 -207.483073 1751.926633
14.169887 -207.483784 1751.916898
14.208209 -207.484120 1751.906607
14.246510 -207.484072 1751.895751
14.284744 -207.483626 1751.884323
14.322866 -207.482765 1751.872311
14.360829 -207.481475 1751.859706
14.398587 -207.479739 1751.846497
14.436094 -207.477543 1751.832675
14.473304 -207.474870 1751.818229
14.510170 -207.471706 1751.803151
14.546646 -207.468035 1751.787428
14.582687 -207.463841 1751.771053
14.618245 -207.459109 1751.754014
14.653274 -207.453823 1751.736302
14.687729 -207.447968 1751.717906
14.721563 -207.441528 1751.698817
14.754730 -207.434488 1751.679025
14.787183 -207.426833 1751.658519
14.818877 -207.418546 1751.637290
14.849765 -207.409613 1751.615327
14.879802 -207.400017 1751.592622
14.908940 -207.389744 1751.569163
14.937133 -207.378778 1751.544940
14.964336 -207.367103 1751.519944
14.990502 -207.354704 1751.494165
15.015585 -207.341565 1751.467593
15.039539 -207.327672 1751.440217
15.062317 -207.313008 1751.412029
15.083884 -207.297581 1751.383049
15.104215 -207.281430 1751.353340
15.123288 -207.264592 1751.322968
15.141079 -207.247108 1751.291996
15.157565 -207.229017 1751.260490
15.172724 -207.210359 1751.228516
15.186533 -207.191173 1751.196138
15.198969 -207.171498 1751.163421
15.210008 -207.151375 1751.130431
15.219628 -207.130841 1751.097232
15.227806 -207.109938 1751.063890
15.234519 -207.088704 1751.030469
15.239744 -207.067179 1750.997035
15.243458 -207.045403 1750.963652
15.245639 -207.023414 1750.930387
15.246262 -207.001252 1750.897303
15.245306 -206.978957 1750.864466
15.242747 -206.956569 1750.831941
15.238562 -206.934126 1750.799793
15.232729 -206.911668 1750.768088
15.225224 -206.889235 1750.736889
15.216025 -206.866865 1750.706263
15.205130 -206.844594 1750.676259
15.192596 -206.822438 1750.646888
15.178490 -206.800412 1750.618154
15.162879 -206.778532 1750.590059
15.145830 -206.756813 1750.562609
